# .PCD v0.7 - Point Cloud Data file format
VERSION 0.7
FIELDS x y z
SIZE 4 4 4
TYPE F F F
COUNT 1 1 1
WIDTH 805
HEIGHT 1
VIEWPOINT 0 0 0 1 0 0 0
POINTS 805
DATA ascii
0.3882931769 0.6193540096 0.008242718875
0.3825488985 0.6222939491 0.008401650004
0.3794794679 0.6242810488 0.008793496527
0.3769831061 0.6264246106 0.008459922858
0.4118154347 0.619076848 0.01278793532
0.4074974954 0.6177834868 0.01226574276
0.3884136081 0.6193467975 0.01238990389
0.3744088411 0.6290326118 0.008857308887
0.3858129382 0.6204847693 0.01254559495
0.4170432389 0.6215322614 0.01303423941
0.4147087336 0.6202513576 0.01751917601
0.4121173024 0.619176507 0.01744665019
0.4074803591 0.617783308 0.01733404025
0.3766677082 0.6267026067 0.01251761895
0.3741822243 0.6293003559 0.01215762272
0.3700913787 0.635510385 0.01120317169
0.3718420565 0.6323937178 0.01260369271
0.402469337 0.6169857383 0.02214089967
0.4122424722 0.6191961169 0.0220897235
0.4072479308 0.6176828742 0.02271565609
0.3926207721 0.6179711819 0.0225863643
0.376850307 0.6265886426 0.01740340702
0.374407351 0.6291077137 0.01768763177
0.3720965087 0.6320207119 0.009039112367
0.3690648675 0.6376255751 0.01264803112
0.4148131609 0.6201794147 0.02418938652
0.3823947608 0.6224356294 0.01738799736
0.3859650791 0.6203967333 0.02288018167
0.3678310513 0.641223371 0.01303044707
0.3792649508 0.6245426536 0.02167422511
0.4202725291 0.623462975 0.0256183017
0.4073680043 0.6176930666 0.02778135799
0.3924948871 0.6180108786 0.02760052308
0.3700319529 0.6354369521 0.02111839317
0.412032783 0.6190386415 0.02747800946
0.4175158143 0.6217009425 0.02774122357
0.3824539781 0.6223919392 0.02738406882
0.414758563 0.6201375127 0.03198776394
0.407664597 0.6177610159 0.0324062407
0.3859087229 0.6203977466 0.008319666609
0.4025180042 0.6170663834 0.03293202817
0.3973009884 0.617167294 0.03279085085
0.3922817111 0.6180325747 0.03238321841
0.3792272508 0.6245024204 0.01209673006
0.3767584264 0.6268008351 0.02744809724
0.3692114353 0.6372609735 0.02271072194
0.4122375548 0.6190828085 0.0326529853
0.3860788345 0.620361805 0.0324780941
0.3721305728 0.632286191 0.02736537904
0.3675524592 0.6419662833 0.02248916961
0.3824225664 0.6224476099 0.03251153603
0.3793850243 0.6244935989 0.03233795613
0.3702589273 0.6351755857 0.02797134221
0.4023815989 0.6170632243 0.03746737167
0.3975972235 0.61714077 0.03762885928
0.4147719443 0.6200572252 0.03914731741
0.392514497 0.6179546714 0.03742747381
0.3884837031 0.6192531586 0.03744598851
0.3857952356 0.6205029488 0.03716569766
0.4173743129 0.6215348244 0.03720539436
0.3672817647 0.642486155 0.02731857449
0.3825903833 0.6223270297 0.03761320189
0.4201006293 0.6233176589 0.0412155129
0.3824748993 0.6223810911 0.02252078988
0.4024208188 0.6170912981 0.04226596281
0.3973437846 0.6171531081 0.04210741445
0.412250936 0.6190168262 0.04256769642
0.4075992703 0.6177129149 0.0423094295
0.3925733864 0.6179302335 0.04257422686
0.3884525895 0.6192590594 0.04262638837
0.3744135499 0.6292954683 0.03758523241
0.4172739685 0.6213717461 0.04251481593
0.3858829141 0.6204173565 0.04252337292
0.367423296 0.6419485807 0.03260255232
0.3926782012 0.6180025935 0.01247309707
0.3823219538 0.622492075 0.04248601198
0.376883626 0.6267604828 0.04236507416
0.407448709 0.6176948547 0.04744844884
0.4025616646 0.6171172261 0.04767309874
0.3974460959 0.6171666384 0.04749890417
0.3793776035 0.6244901419 0.01765259914
0.3924946487 0.6179894805 0.0475782752
0.4200409949 0.6231150627 0.04838346317
0.3702200353 0.6350861192 0.008928311989
0.3881905973 0.6193625331 0.04718043655
0.3858630955 0.620380044 0.04791095853
0.407387197 0.6176878214 0.03741374612
0.367269963 0.6420929432 0.03725503758
0.4173243642 0.6213610768 0.0473941341
0.4150147438 0.6199977398 0.05208602548
0.4024044573 0.6170640588 0.05267870054
0.3825416267 0.6223256588 0.0475557074
0.3976502717 0.617118299 0.05284914002
0.3926280439 0.617875576 0.05234422907
0.3743859231 0.6293719411 0.04716151208
0.3884146214 0.6192060709 0.05268780142
0.3702367246 0.6352189183 0.01876285113
0.3856663108 0.6204174161 0.05248563737
0.4203516841 0.623331368 0.0541462265
0.3702016175 0.6352998018 0.03822192177
0.4175265431 0.6213917732 0.05228744447
0.3824061751 0.6223756075 0.05226944387
0.3721323013 0.6322513819 0.04763342813
0.3702223599 0.6352528334 0.04724363238
0.3794108629 0.6245532036 0.05288928747
0.397274226 0.6171417236 0.05728582665
0.3768256307 0.6268283129 0.05246073753
0.4121483862 0.6188177466 0.05752784386
0.3922545612 0.617952168 0.05746331066
0.3880814016 0.6193351746 0.05759657547
0.3720349669 0.6323751211 0.05247671157
0.382470578 0.622300446 0.0574974902
0.3794501424 0.6244847775 0.05773723125
0.3770285249 0.6266223192 0.05752691254
0.3700567782 0.6356694102 0.04046739265
0.4125743806 0.6189798117 0.06236276403
0.4073546231 0.6175050735 0.06246190518
0.3744676709 0.6292199492 0.05730457976
0.3672651947 0.6416093707 0.05231296271
0.4171327949 0.6211346388 0.06261707097
0.3881120086 0.6193385124 0.06253299862
0.3856900334 0.6202847362 0.06189981475
0.3768676817 0.6266633868 0.06238804013
0.368902266 0.6374719739 0.05768500641
0.407549262 0.6175610423 0.06753569841
0.402492851 0.6168960333 0.06780777127
0.397547096 0.6170632839 0.06773936749
0.3672750294 0.6415588856 0.05737643316
0.3883030713 0.6191543341 0.06770928204
0.3856734335 0.6202771664 0.06781562418
0.4174049199 0.6213176847 0.06736695766
0.3824431896 0.6222633123 0.06742759794
0.3718100786 0.6324653029 0.06239080057
0.3974117935 0.6169881225 0.07232218236
0.3882092834 0.6193972826 0.02748769335
0.3766857684 0.6266913414 0.06753385067
0.3700558841 0.6351673007 0.06677886099
0.3673036993 0.641563952 0.06238721684
0.4076851606 0.6174906492 0.07263121754
0.3924000859 0.6178822517 0.07265722752
0.3739421964 0.6294605732 0.06763619184
0.3692017794 0.6374391317 0.009629743174
0.385624975 0.6202471852 0.07272415608
0.3716605604 0.6325319409 0.06736319512
0.4206963181 0.6236613989 0.07422548532
0.4073530138 0.6175835133 0.09709589928
0.4025536776 0.6169418693 0.09698817879
0.4312756658 0.6430388093 0.09594574571
0.3974098265 0.6169064641 0.09701125324
0.4173078239 0.6220175028 0.09691154212
0.4173494577 0.6214168668 0.08231497556
0.4123012722 0.6189700961 0.09711325169
0.4024221301 0.6169005036 0.08745552599
0.4076478779 0.6176007986 0.05750120059
0.3861999512 0.6200967431 0.09631661326
0.4223208129 0.6281069517 0.09592731297
0.375161171 0.6693273187 0.09142878652
0.420107305 0.6235635281 0.01952516288
0.3769432902 0.6266807914 0.03751025721
0.413267374 0.6222712994 0.0961368829
0.3980091214 0.6317386627 0.09682682902
0.3925107419 0.6275947094 0.09625893831
0.3983053267 0.6468693018 0.09492632747
0.3873574436 0.6278594732 0.09616354108
0.4148732424 0.6799108386 0.01945744455
0.3828901052 0.6285228729 0.09644557536
0.3906615674 0.6796889901 0.05195621029
0.3839531839 0.6761170626 0.01718652062
0.3825621605 0.6216541529 0.09710675478
0.3796373308 0.6754961014 0.1002806649
0.3806973696 0.6743199825 0.07757741958
0.4025231898 0.6441553235 0.09495361894
0.3788263202 0.6708973646 0.04750317335
0.3875583112 0.6771802902 0.04757661
0.3793500662 0.6707053185 0.02225982584
0.3709806204 0.662602663 0.06757300347
0.4088146389 0.6284114122 0.09574504942
0.4306294024 0.63781178 0.09576161206
0.40281865 0.6372439265 0.09715079516
0.4123052061 0.6814497709 0.06741658598
0.3689878285 0.6590325832 0.0276444573
0.4019636214 0.6334114075 0.09679204971
0.3807515204 0.6333807707 0.09715168923
0.3769109845 0.6269240975 0.09700097144
0.3744165301 0.6293025613 0.02733336389
0.3865752816 0.6473275423 0.09723973274
0.4078131318 0.6823685169 0.01271873619
0.4269934297 0.6375137568 0.09589163959
0.3974778354 0.6170932651 0.06257670373
0.3972064257 0.6824352145 0.008283914998
0.4178180695 0.6340714693 0.09582723677
0.4133098423 0.6337883472 0.09567712992
0.4123357236 0.6811509132 0.08219709247
0.3974189162 0.6827859282 0.03740562499
0.3737143874 0.666428566 0.01242855564
0.3930408955 0.6407587528 0.0963427946
0.3880184293 0.6192560196 0.07738812268
0.3886149824 0.6342799067 0.09615529329
0.4144577384 0.6201970577 0.01147338934
0.3898175657 0.6802179217 0.09350393713
0.4023605883 0.6827721 0.0778061524
0.3973924816 0.6172338724 0.008111285977
0.3821760416 0.6382070184 0.09687752277
0.406968981 0.6824689507 0.008754394017
0.4126150906 0.6190382838 0.07734347135
0.4221929014 0.6381421685 0.09582263231
0.4171436727 0.6378720999 0.09568986297
0.4209721386 0.6762011647 0.09733260423
0.41267398 0.6190215349 0.06744596362
0.3976412416 0.6829533577 0.03214337304
0.402475059 0.6168369055 0.07229342312
0.3692961335 0.6586152315 0.08786761761
0.4125140607 0.6376950145 0.09527914971
0.4057330489 0.6440294981 0.09491704404
0.3715816438 0.6630636454 0.0473985076
0.3918991685 0.624058187 0.09720160067
0.3831295073 0.642929852 0.09665169567
0.4207127094 0.676250577 0.03281860426
0.3696752787 0.6601746678 0.01258941181
0.4219602048 0.6723508239 0.09617421031
0.4271767437 0.6428486705 0.09579608589
0.4169032276 0.6788557172 0.1007734165
0.4223236442 0.642737031 0.09588734806
0.4178666472 0.6422104836 0.09557418525
0.3857081532 0.6202799082 0.05754202604
0.3788870871 0.6714064479 0.01726944558
0.3924581707 0.6175028086 0.09736645967
0.3876024485 0.6386831403 0.09603492171
0.3740565777 0.6292502284 0.09255965054
0.4129255116 0.6427746415 0.09544477612
0.3711490929 0.6627296805 0.05754942447
0.4076547921 0.682613492 0.02280453779
0.4125638306 0.6287485957 0.09584049135
0.4125119448 0.6478174329 0.0957980454
0.4070549905 0.6477395892 0.09640783817
0.3700534105 0.6352440119 0.07605656236
0.3880072534 0.652782917 0.09643385559
0.4207749963 0.6241357327 0.09638410807
0.4095949233 0.6532194614 0.09498690814
0.4150303602 0.6803439856 0.06603556871
0.4211531878 0.6761386395 0.05867798626
0.380761385 0.6740273237 0.01219410542
0.3692747951 0.6587523818 0.1004812419
0.4201614261 0.6232539415 0.07666672766
0.4077253342 0.6712436676 0.09609112889
0.4275408983 0.6475870013 0.09585670382
0.4225081503 0.647364974 0.0959321335
0.4023248851 0.6829789281 0.06760080904
0.3923867643 0.6809930801 0.0923397094
0.4121002853 0.6191556454 0.008693380281
0.4176025987 0.6214449406 0.09243712574
0.4122456908 0.6188981533 0.09249757975
0.4175801575 0.6217865348 0.0223779995
0.3949456215 0.6441056728 0.09493918717
0.402528137 0.6169947982 0.0627675876
0.3712449968 0.6627457738 0.05254227296
0.3828068674 0.6475948095 0.0955439806
0.3783717453 0.6476825476 0.09569953382
0.3874907494 0.6785811186 0.01762063988
0.4207046628 0.6762344837 0.04750160128
0.3925027549 0.6379832625 0.09678269178
0.3705123067 0.6630391479 0.100439325
0.392380923 0.6341498494 0.0959847793
0.3857050538 0.6202250719 0.08274214715
0.3696214557 0.6606698036 0.09782093763
0.3689976633 0.6587332487 0.09725281596
0.4022338092 0.6835832596 0.03783643246
0.4223432839 0.65234375 0.09598555416
0.4123984873 0.6814793348 0.04767885059
0.3735602796 0.6672859788 0.08728671074
0.3879901469 0.6191335917 0.09248854965
0.3720366955 0.6322464347 0.0226385463
0.397600919 0.6572216153 0.09667063504
0.4024884105 0.6171331406 0.0122824274
0.3692419529 0.6592101455 0.03224719316
0.3698248267 0.660307765 0.07296511531
0.4152848423 0.6800713539 0.07433739305
0.4024159908 0.617030859 0.0574243851
0.3729365766 0.6673543453 0.1004201174
0.3879368305 0.6192652583 0.07254698128
0.3715531528 0.6322900653 0.09738972038
0.3673841953 0.6422464252 0.08767508715
0.3732173145 0.6674320102 0.09757315367
0.4271300435 0.657084465 0.09574058652
0.3915930092 0.6539056301 0.09636822343
0.4221798778 0.6570786238 0.09607541561
0.387624681 0.6779461503 0.06244631112
0.4173085093 0.6571826339 0.09561771154
0.4116555452 0.6527284384 0.09484242648
0.4095034897 0.6606141925 0.09490359575
0.3768335581 0.6726716757 0.1004579142
0.4201495945 0.6772124171 0.100788869
0.4206610918 0.6764019728 0.05219216645
0.3691523373 0.6583391428 0.0824456811
0.3965988755 0.6293458939 0.09716194868
0.3969630897 0.6549246311 0.09565282613
0.4221639931 0.6623480916 0.09596603364
0.4132187366 0.6581775546 0.0953591466
0.4113867581 0.6571875811 0.09485955536
0.3979145885 0.6406117678 0.09524522722
0.4075733423 0.6574020386 0.09492304921
0.3806318343 0.67463094 0.08282934129
0.4072710872 0.6829730868 0.05722105876
0.4122507274 0.680971384 0.0124273859
0.3715615571 0.6632134318 0.09718546271
0.4037954211 0.657523632 0.09495905042
0.3718311489 0.6322199106 0.07765222341
0.3972207904 0.6602475643 0.09576559067
0.4275248349 0.6625127792 0.0959635973
0.3699126244 0.6606039405 0.0591387935
0.4223785102 0.6677885056 0.09584838897
0.422748208 0.6329441071 0.09569770098
0.3774796426 0.6727067232 0.09728140384
0.4209908247 0.6762337685 0.06915525347
0.3819141686 0.6214658618 0.1003412381
0.4175942242 0.6776445508 0.09686155617
0.3720545769 0.6324275732 0.04250331596
0.3826166391 0.6765751839 0.0923801288
0.4076765478 0.6771964431 0.09593357146
0.3742916584 0.6290557981 0.07242248952
0.4121385813 0.6811065674 0.100690186
0.4076001346 0.6819167733 0.09280892462
0.4024869502 0.6170051098 0.02735902369
0.4174455702 0.6213654876 0.07235024869
0.3736418784 0.6662841439 0.05729107931
0.3786871433 0.6711748242 0.05274628848
0.4075077176 0.6830685139 0.05238146335
0.4020823836 0.6828112602 0.1007294953
0.3971603215 0.6825847626 0.1011306494
0.417763412 0.678669095 0.06757438928
0.3924632967 0.6178484559 0.06739053875
0.3933373988 0.6811547279 0.04241069406
0.3760603666 0.6690752506 0.06247365102
0.3888064921 0.6807769537 0.1005919725
0.3776257634 0.6728520989 0.09276390821
0.3908474147 0.6795107126 0.04707790911
0.371581018 0.6635755897 0.009836458601
0.3690051138 0.6379039288 0.01747302897
0.3878027201 0.6188697815 0.09751730412
0.3861939013 0.6796568036 0.1002582014
0.3689414561 0.6376566291 0.09256885946
0.3797747791 0.6755071282 0.09902172536
0.3692421317 0.6590913534 0.03796343133
0.4020610154 0.682872653 0.008475048468
0.3882130086 0.6191889644 0.08259612322
0.3776031137 0.6674829721 0.09595398605
0.3976769447 0.6826431751 0.01236099564
0.3709004223 0.6624383926 0.0925501287
0.369268477 0.6582686305 0.09194036573
0.4024613798 0.6171352863 0.008255720139
0.4121683836 0.6807441115 0.09754794836
0.3973603547 0.6171647906 0.01714464277
0.4073558748 0.6815809011 0.09746727347
0.3717387617 0.6324437857 0.08237990737
0.4073605835 0.6521493793 0.09669195861
0.4024865925 0.6820895076 0.09723779559
0.4203956425 0.6767576933 0.06282392144
0.3925463855 0.6812157631 0.09742516279
0.3892115653 0.680467546 0.09798767418
0.3850358129 0.674998343 0.03097495809
0.3821774423 0.6726805568 0.09614741057
0.4129120708 0.6779772043 0.09649052471
0.3875130117 0.6788222194 0.08278764784
0.3746546805 0.6650372744 0.02563535236
0.4125023782 0.6716187 0.09603144974
0.3872774541 0.6790645123 0.09251527488
0.4203522503 0.6767731905 0.07257919014
0.388371557 0.6193758845 0.01748743467
0.381890744 0.6524556875 0.09548228234
0.3688632846 0.6581586003 0.05761386454
0.3711135685 0.6631200314 0.08758506179
0.3744284213 0.6293218732 0.0325008221
0.420250535 0.6768443584 0.09182865173
0.4123769403 0.6808201671 0.09224622697
0.4025916159 0.6823812127 0.09287378937
0.3856776655 0.6205306649 0.02761965804
0.3672787845 0.6422409415 0.07747042924
0.3779125512 0.6728094816 0.08780946583
0.3675147891 0.6423203349 0.01756295003
0.3782010078 0.6243078113 0.1004596278
0.3755369186 0.6694527268 0.08761516213
0.3720503747 0.632417798 0.0324482508
0.3698136806 0.6602034569 0.0853811875
0.4210908115 0.6762101054 0.08717355132
0.3875510395 0.6781291962 0.06731303781
0.4179064333 0.6784209013 0.08769888431
0.3877099454 0.6425421238 0.09714117646
0.4123758078 0.6188732386 0.07249026
0.4270457923 0.6330286264 0.09598860145
0.3899249732 0.6800631881 0.01816451736
0.3767713606 0.6267074347 0.02273183689
0.3689001799 0.6379267573 0.03765296191
0.3924012482 0.6774123311 0.09586337209
0.4125727117 0.6809067726 0.08751618117
0.4073707759 0.6821944714 0.08779831231
0.4073350132 0.6177668571 0.008059097454
0.3719864786 0.6322129369 0.01738655753
0.371953249 0.6325398088 0.03736968711
0.3714777529 0.6629049182 0.01770116575
0.3672710359 0.6416163445 0.04750983045
0.3874245584 0.6789526939 0.08740472794
0.4024083614 0.6825346947 0.08790646493
0.3975702226 0.6821103692 0.0876596719
0.3925836682 0.6809324026 0.08749740571
0.3734594882 0.6669800878 0.08259422332
0.4124015868 0.618973732 0.05253051966
0.4023787379 0.6169076562 0.08241207898
0.4176406562 0.621306181 0.1006186903
0.3699319959 0.6603987217 0.03475932777
0.36920771 0.6585626602 0.07766289264
0.4174363017 0.6788480282 0.07237675041
0.4173943996 0.6787477136 0.08287642151
0.4026353359 0.6828621626 0.07256818563
0.3742437363 0.6279870868 0.1002983078
0.3927318454 0.6813665628 0.008273510262
0.41738379 0.6212937832 0.05749839917
0.383263588 0.6765898466 0.08230654895
0.3744694293 0.6290909648 0.06281331927
0.3711023331 0.6629747152 0.07733909041
0.3691879809 0.6593984365 0.01700123027
0.4203864634 0.6768051982 0.08160688728
0.4074900448 0.6823748946 0.08281993866
0.3922449946 0.6181198359 0.008143710904
0.402528584 0.6826601028 0.08283281326
0.3688913584 0.6375882626 0.07748109102
0.3720143139 0.6323225498 0.05743314698
0.3974581957 0.6821071506 0.08283169568
0.3927290738 0.6809046268 0.08229904622
0.3905316591 0.6796975732 0.05733834952
0.3735387027 0.6669461131 0.07758030295
0.3901112676 0.6798263192 0.02820156515
0.377763927 0.6718782187 0.07742214203
0.369022578 0.6372686028 0.09731719643
0.375472337 0.6693000793 0.07722501457
0.3901904821 0.6799393892 0.0807075724
0.3831648231 0.6762638688 0.07757352293
0.379293859 0.6244735718 0.06742418557
0.3691656291 0.6584353447 0.0723489821
0.392229408 0.6811795831 0.01753164269
0.4208900034 0.6763879061 0.07890240103
0.4178626537 0.6784764528 0.07766094059
0.3873167932 0.6785740852 0.07769372314
0.4151576459 0.6802800894 0.05558719113
0.3712655604 0.6632577777 0.07262298465
0.4123891592 0.6812309623 0.07747605443
0.4073240757 0.6824872494 0.0777111873
0.3974251151 0.6821288466 0.07744967192
0.4072461426 0.6232837439 0.095640257
0.3924880326 0.6807636023 0.07727962732
0.3737181127 0.6669381261 0.07248231769
0.3689699471 0.6378670335 0.02733328566
0.37823686 0.6719795465 0.07243619114
0.3786608875 0.6716899276 0.06230342388
0.3758341968 0.6691958308 0.07184972614
0.3742423952 0.6293071508 0.02180622332
0.4025411904 0.616930604 0.09263210744
0.4150036871 0.6801562309 0.07629414648
0.3836047947 0.6761959791 0.07285498828
0.3883861601 0.6193469763 0.0220159851
0.3812023997 0.6745234132 0.07246781886
0.3739045262 0.6668655276 0.06264788657
0.4075658321 0.6175485849 0.09237996489
0.3700730205 0.6351287961 0.05739271641
0.369210422 0.6586897373 0.06713492423
0.3875086308 0.6784174442 0.07252229005
0.3837706149 0.6758927703 0.06773734093
0.3876125813 0.6184962988 0.1002773121
0.4120366573 0.6188361049 0.0824001804
0.4123364687 0.6813765168 0.07202091068
0.4076571465 0.6825512648 0.07278867066
0.4174956083 0.6622692347 0.095995754
0.397431314 0.6822246909 0.07263658196
0.4149031639 0.6204072833 0.008926463313
0.3928160071 0.680934608 0.07218329608
0.4174793661 0.6784476042 0.02764219418
0.3759196103 0.6692592502 0.06742148101
0.3824473917 0.6223894358 0.01264814101
0.4258922935 0.6293212175 0.09600257128
0.3768438697 0.6264516711 0.07735452801
0.3897516131 0.6802614927 0.008019836619
0.3793176413 0.6245411634 0.02751263976
0.3701103926 0.6350256205 0.07498217374
0.3900833726 0.6797547936 0.07165302336
0.3782758117 0.6716885567 0.06759732217
0.3924781978 0.6178044081 0.0875986442
0.3689570129 0.6582014561 0.06275339425
0.3874563575 0.6580883265 0.095315516
0.3813556731 0.6742299795 0.06734261662
0.3713490963 0.6631726623 0.06247159466
0.3721468747 0.6627091169 0.03235989809
0.3905174732 0.6797990799 0.06778883934
0.3779024482 0.671929121 0.008640311658
0.37686041 0.6267657876 0.03248210996
0.4024093151 0.6571263671 0.09665129334
0.3870463967 0.6783571243 0.09654653817
0.4179375172 0.6783466339 0.04770483077
0.3825998306 0.6685321331 0.09579906613
0.3974574804 0.6820647717 0.09295266122
0.4172222316 0.6787906885 0.0926418677
0.3975018561 0.6823878884 0.0672807768
0.3749157786 0.6657210588 0.03341271728
0.376908958 0.6267827153 0.04772927612
0.3697624207 0.6602134705 0.06166989356
0.4039240181 0.6636252403 0.09506928176
0.3823747933 0.677315712 0.1005054712
0.3842602372 0.6758236289 0.06277550757
0.3700348437 0.6355282664 0.0308527872
0.4175796807 0.6788359284 0.06225412712
0.4154444933 0.6801365614 0.06336513907
0.4027424753 0.6831082106 0.06235657632
0.414406687 0.6200469732 0.02665346116
0.3744394779 0.6656321287 0.02198648825
0.397513628 0.6824471951 0.06233812496
0.3825078607 0.6734092832 0.04749291018
0.3974613249 0.6163753271 0.1001988724
0.379407227 0.6245547533 0.04279001802
0.3792425394 0.6244521737 0.0724504441
0.3756189644 0.6694437265 0.08232509345
0.3783102632 0.6710814834 0.05752769858
0.3925485313 0.6178919673 0.07762606442
0.3691697121 0.6589233279 0.05251261964
0.4179925025 0.6785045266 0.05756180361
0.4126908481 0.6814014316 0.05780490115
0.4075071812 0.6822008491 0.1010162607
0.4021569192 0.6831479669 0.01743209176
0.3844594359 0.6755087972 0.05713755637
0.4022720158 0.6832321882 0.05731545389
0.3977302313 0.6825581193 0.05720068514
0.368935883 0.6374933124 0.08252650499
0.3762738407 0.6688165665 0.0522351563
0.374278307 0.6664496064 0.01719753444
0.3975177407 0.6368560791 0.09678622335
0.3823795021 0.6738254428 0.05256910995
0.3781071305 0.6430148482 0.09573175013
0.4172197878 0.6724233627 0.09594245255
0.3698582649 0.66026932 0.04828393832
0.3687928915 0.6580349207 0.04708198458
0.3923887312 0.6180580258 0.01757108793
0.4174663723 0.6787688732 0.05227475986
0.3903465867 0.6796628237 0.0375110358
0.3848958611 0.6755248308 0.05319181085
0.368945837 0.6591714621 0.02259373292
0.3792742789 0.6709247231 0.04245122522
0.3973455131 0.6824370623 0.05275798589
0.4073078334 0.683147192 0.04766551033
0.3688573837 0.6378672123 0.0473141484
0.3974823356 0.6169600487 0.07742644101
0.3763430119 0.6686754227 0.04756949097
0.4026751518 0.6834052801 0.05203817412
0.4174361825 0.6216000915 0.03249417245
0.3689536154 0.6584448218 0.04258295149
0.4127120376 0.6518201828 0.09573981166
0.4127663374 0.6810491085 0.03238265961
0.4173644483 0.6217094064 0.01756875589
0.4316303134 0.6526978016 0.09582673758
0.3931521177 0.6809476614 0.05779084191
0.3742018342 0.6661522388 0.04304911569
0.394289881 0.652300477 0.09480299056
0.3736701906 0.6667223573 0.06739224494
0.3974948823 0.6825326085 0.04788859934
0.4306244254 0.6576219797 0.09591030329
0.3975157738 0.6170899272 0.02223273553
0.4023569524 0.6834965944 0.0472195521
0.390663147 0.6797448993 0.06244538352
0.3825455904 0.6732645631 0.0425330624
0.4206967354 0.6761955023 0.04283349589
0.3872969747 0.6670858264 0.09583519399
0.415168047 0.6800912023 0.04630649462
0.3875843585 0.6772091389 0.04249322414
0.3858911097 0.6204522252 0.01768838987
0.417231828 0.6787326336 0.04265578836
0.3909780681 0.6796606779 0.04283042997
0.3744414449 0.6658670902 0.03753878176
0.4124659598 0.6813708544 0.04216263443
0.3793908954 0.6245470047 0.0374324508
0.3926430643 0.6818076372 0.1008991003
0.407660991 0.6830428243 0.04293942451
0.4121376872 0.6809465885 0.008318386972
0.4025242031 0.6835706234 0.04272790253
0.3801741004 0.674718082 0.08670353144
0.3698542416 0.6602066755 0.03605078161
0.3929973841 0.6808917522 0.05238112807
0.382461369 0.6728297472 0.03752634674
0.3794501126 0.6704063416 0.03726103529
0.421055913 0.6759018302 0.03760221601
0.3973683715 0.6170434356 0.08749485761
0.3689761758 0.6374779344 0.05225864798
0.3873523772 0.6770913601 0.03745555505
0.4124534428 0.6812726855 0.03758729994
0.3976305425 0.6171825528 0.01252687536
0.3929491341 0.681086123 0.03758059815
0.4076368809 0.6827820539 0.06254032254
0.3832581043 0.6761388183 0.01252274401
0.3826383054 0.6220271587 0.07248106599
0.4073571861 0.6830448508 0.03737452254
0.3827725351 0.6765099764 0.08738113195
0.3805421591 0.6743517518 0.008434323594
0.4071222246 0.6632686853 0.09518836439
0.3828159273 0.6725944281 0.03250704706
0.3933573961 0.6810317039 0.04751015827
0.3769394457 0.6682538986 0.03760014474
0.3715100288 0.6324124932 0.1003439501
0.3700912297 0.6350589395 0.08419268578
0.3801121116 0.6699547768 0.03235644847
0.3884667456 0.6192826033 0.03255917504
0.3790692985 0.6238639355 0.09792613238
0.372404635 0.662758112 0.02762135491
0.4126569033 0.6191306114 0.04750300571
0.3759731054 0.6685383916 0.05728185177
0.4176060855 0.6784297228 0.03261014447
0.3700134158 0.6352200508 0.08527997136
0.3775400817 0.667521894 0.02758599073
0.3925305009 0.681314826 0.01268229727
0.4159986675 0.6207794547 0.009958743118
0.4033808708 0.6231914759 0.09561431408
0.3926413059 0.6810507774 0.03263414279
0.3929600716 0.6572878361 0.09639496356
0.4209170043 0.6759941578 0.01713535935
0.4073274732 0.617503345 0.07739177346
0.4124613106 0.6815009117 0.05260660127
0.3903209865 0.6796995401 0.03217606246
0.3696561456 0.6600950956 0.02572415024
0.4075602293 0.6828713417 0.03246996179
0.4027211368 0.6835474968 0.03238166869
0.3822751939 0.6724543571 0.02753595635
0.4073014259 0.6827193499 0.06751028448
0.3829471171 0.6762874722 0.008200153708
0.4211770296 0.6758159399 0.0279270336
0.3689286709 0.6374849081 0.07225039601
0.3871697783 0.6774627566 0.02751322277
0.3794102967 0.6245439053 0.04677320272
0.4027013779 0.6832973361 0.02289606258
0.3720859587 0.6629433632 0.02273244224
0.3975631595 0.6171076894 0.02756901272
0.3870063722 0.6785930395 0.01251648739
0.3698547184 0.6605676413 0.022464443
0.3876521289 0.6718463302 0.09589332342
0.3923570812 0.6179060936 0.08246500045
0.4075527489 0.6424378753 0.0966053158
0.376996398 0.6680742502 0.02265307866
0.3971065879 0.6778627634 0.09591604024
0.4123850763 0.6811496019 0.02754905075
0.3817959726 0.6741532683 0.06256268173
0.4074311256 0.6827619672 0.02758716606
0.3735333681 0.6672680378 0.09263251722
0.3741337061 0.6291781068 0.08269473165
0.3971538544 0.6828857064 0.02763787471
0.392673552 0.6812883615 0.02741116658
0.4020816386 0.683445394 0.02766015567
0.4026691914 0.646886766 0.09492034465
0.3931260109 0.6810078025 0.06756140292
0.3843357861 0.6751191616 0.02561515383
0.3925973177 0.6178350449 0.06257994473
0.3818179965 0.6731522679 0.02277417853
0.3841600716 0.6756355762 0.02197994851
0.3690629303 0.6375877261 0.04243062437
0.4173669517 0.6785264015 0.02245347388
0.3767243624 0.6266180873 0.07248717546
0.431261003 0.6481474042 0.09571453184
0.3825347126 0.6766711473 0.09710656106
0.392565012 0.6812729239 0.02265104838
0.3765248358 0.6687895656 0.01770772971
0.412376374 0.6810773611 0.02208660543
0.3975317776 0.6829227805 0.02259067632
0.3689457178 0.637524128 0.08759303391
0.3699276447 0.6604851484 0.08351344615
0.387752533 0.6773895025 0.03249322623
0.3687611222 0.6583303213 0.01391627919
0.381519407 0.6738769412 0.01788791642
0.4070999026 0.6378718019 0.09599997103
0.371427685 0.663167417 0.01244788617
0.4173248112 0.6784738898 0.01749612018
0.3793991804 0.6244824529 0.0623858422
0.3756018281 0.6686685085 0.0126798898
0.4072234929 0.6825921535 0.01733220369
0.3780785501 0.6725009084 0.08241029084
0.3791343868 0.6243268251 0.09241902083
0.3740181923 0.6662430167 0.04740286991
0.3973074853 0.6827585101 0.01726716571
0.3875495791 0.6782505512 0.0225478895
0.3688452244 0.6375868917 0.06757422537
0.3781546652 0.6715518236 0.01257211342
0.4206113517 0.67626369 0.01383204572
0.3738674223 0.66631037 0.05267363414
0.4175231457 0.6783317924 0.01266096253
0.3817259669 0.6737129688 0.05767723545
0.3794139922 0.6241901517 0.07768568397
0.3734354973 0.6664173603 0.008955721743
0.4200828671 0.6231285334 0.05539982393
0.3826335073 0.6221586466 0.06267745793
0.3756166995 0.6692177653 0.008993275464
0.4027839303 0.6829877496 0.01261423808
0.4146340787 0.679915309 0.01129110623
0.3675377369 0.641859293 0.09264350682
0.389498353 0.680109024 0.01069102436
0.367308408 0.6417130232 0.04264066741
0.3784075975 0.6325842738 0.09582017362
0.4157705903 0.6792788506 0.008963173255
0.4174621701 0.6524229646 0.09553553909
0.4175929725 0.6784256697 0.03747275099
0.3758224547 0.6265115142 0.1004373953
0.4030249119 0.6405397654 0.0952244401
0.4148540199 0.6797887683 0.009868821129
0.3871572614 0.6789275408 0.008249274455
0.4029059112 0.6781945229 0.09600736946
0.3980711102 0.6726353168 0.09608131647
0.4203358889 0.6233338714 0.06862619519
0.4024530351 0.6727163792 0.09611850977
0.3925991356 0.6715000868 0.09600695968
0.4265859127 0.6672278643 0.09623071551
0.38738361 0.6776706576 0.05753717199
0.3925373554 0.6670751572 0.09562513232
0.3974080384 0.6674371958 0.09557100385
0.3856049776 0.6202554703 0.07772096246
0.3929159343 0.6808696985 0.06264927983
0.4024597704 0.6674439311 0.09556872398
0.4151245356 0.6800128222 0.08519788831
0.4119611382 0.6669786572 0.09591943026
0.4278680086 0.6521270871 0.09584821016
0.4170645475 0.6676734686 0.09608253837
0.3775072992 0.6625910401 0.09575125575
0.3824752867 0.6631814837 0.0958063826
0.3877595067 0.6627834439 0.09554677457
0.4123935103 0.6629261971 0.0955651775
0.4072823822 0.6324217916 0.09538504481
0.3981422782 0.6440138817 0.09491252899
0.3720310032 0.6631324291 0.03735153005
0.3672910035 0.6458106637 0.101018779
0.3672752976 0.6422621012 0.1005001217
0.3975171149 0.6821058393 0.09750457108
0.3743436337 0.657010138 0.09553276002
0.4073128998 0.6174945831 0.0875492394
0.4123600721 0.6810245514 0.01748303324
0.3775022924 0.658254683 0.0956961289
0.3771849275 0.6374069452 0.09564553201
0.3829686344 0.6575012207 0.09545040131
0.4027438462 0.6533885598 0.09617223591
0.4023699462 0.6170802712 0.01741600595
0.3675099015 0.6422470212 0.09765596688
0.4175658226 0.6469730139 0.09545782954
0.3700679243 0.6352635026 0.09381909668
0.3921842873 0.6615445018 0.0957890749
0.3774292469 0.6530915499 0.09569378942
0.3825458288 0.6219479442 0.08756069094
0.3685569763 0.637902379 0.100272499
0.3974038064 0.6518617868 0.09495232254
0.4019050896 0.6506992579 0.09496212751
0.3975575566 0.6827703714 0.04259774461
0.4054237306 0.646961391 0.0948946923
0.4150583148 0.6199861765 0.05905693769
0.3739116192 0.6288787127 0.09765640646
0.3798389435 0.6701159477 0.03444952145
0.3765622973 0.6266599298 0.09260469675
0.4124123156 0.6186718941 0.1004364118
0.3744383752 0.6292526722 0.04307163879
0.4122655094 0.6815449595 0.06226456538
0.3716697991 0.6325427294 0.09230847657
0.3824705184 0.6220646501 0.07752266526
0.38448897 0.6197478175 0.09983763099
0.3766115308 0.6685680151 0.04239008576
0.4023699164 0.616392076 0.1003576964
0.3790818453 0.6244276166 0.0826696232
0.4148153663 0.6200534701 0.08243262768
0.3875868022 0.6775683165 0.05258741975
0.4073247612 0.617246151 0.1007165015
0.4076708257 0.667254746 0.09569678456
0.36722067 0.6419662833 0.06734907627
0.4152198732 0.6197189689 0.09984777123
0.412457943 0.6189854145 0.0874921456
0.3824826479 0.621948421 0.09238574654
0.3718257248 0.6322846413 0.08749635518
0.4121290445 0.6190111637 0.0375152044
0.4177711308 0.6286273003 0.09580616653
0.4062426686 0.6553102136 0.09625063837
0.3924137354 0.6177430153 0.09249961376
0.3709339499 0.6626834869 0.08212040365
0.3675240874 0.6414331198 0.0824213624
0.4153943956 0.6801033616 0.05421171337
0.374340564 0.6289339066 0.08769845963
0.3691151142 0.6375129223 0.03247030824
0.3852095306 0.6202625036 0.0918835476
0.3974659741 0.616959393 0.09253391623
0.3767741323 0.6264026165 0.08732558042
0.3688597381 0.6374346018 0.06226816773
0.3792845607 0.6242076755 0.08763154596
0.3772701025 0.6675504446 0.03245132789
0.4202642143 0.6231449842 0.08971036971
0.3856373429 0.620167613 0.08707152307
0.4208107293 0.6761027575 0.02262440324
0.3879086375 0.6192204952 0.08755038679
0.4173586667 0.621327579 0.08723832667
0.3764563501 0.6267257929 0.08247882128
0.3825258315 0.622048676 0.08248706907
0.3923165202 0.6173350215 0.1006852835
0.4205052257 0.6235471964 0.08223111182
0.4073732793 0.6175423861 0.08253376931
0.367444694 0.6413827538 0.07253664732
0.3742741048 0.629103601 0.07751307636
0.4073142409 0.617564559 0.05269195139
0.397600174 0.6170430779 0.08245919645
0.4174654782 0.6214827299 0.07768074423
0.3744441867 0.6293234229 0.05292332172
0.3717254102 0.6324846148 0.07249233872
0.3716127872 0.662881732 0.04249757528
0.4025121331 0.6169121861 0.07759231329
