# .PCD v0.7 - Point Cloud Data file format
VERSION 0.7
FIELDS x y z
SIZE 4 4 4
TYPE F F F
COUNT 1 1 1
WIDTH 1221
HEIGHT 1
VIEWPOINT 0 0 0 1 0 0 0
POINTS 1221
DATA ascii
0.2147247344 0.6251704693 0.06788421422
0.2091260552 0.6604145169 0.1573625952
0.1973797083 0.6182090044 0.07750169188
0.2310060412 0.6795802712 0.06792895496
0.263761431 0.6671958566 0.1579620838
0.222796455 0.6673012972 0.1576504409
0.2572307885 0.6483771205 0.03253707662
0.1862754673 0.6172882318 0.1274171025
0.2192604393 0.6655158401 0.1576135159
0.2164128125 0.6640887856 0.1573166549
0.2612643242 0.6721413136 0.1571974903
0.2025163323 0.657499969 0.1523725688
0.2376085669 0.6785254478 0.1125631407
0.2135414779 0.6255277395 0.04744112492
0.2275918126 0.6775851846 0.07736648619
0.1780056953 0.654291749 0.04785029963
0.2391942888 0.6852973104 0.01293098181
0.2372900248 0.6332099438 0.1523664147
0.2324956656 0.6720445752 0.1575358957
0.2291126102 0.6704137325 0.1577928662
0.2181081325 0.6658001542 0.1474750936
0.2545194626 0.684576273 0.03279438615
0.2274603248 0.6319016218 0.03746030852
0.2073462605 0.6220231056 0.07258779556
0.2266477495 0.6692482233 0.1571887434
0.2287857682 0.6302909851 0.1419943273
0.1860609502 0.6497378945 0.1530958712
0.218675822 0.6755999327 0.05241190642
0.2517644465 0.687735498 0.02759528533
0.1824639589 0.648180902 0.1527691931
0.1818487495 0.6268838644 0.1475713253
0.2580760717 0.6782303452 0.1571235806
0.2501187921 0.679798007 0.1576249301
0.2118224204 0.6691883206 0.09284127504
0.2474671155 0.6786999106 0.1576558352
0.245637089 0.679818213 0.1328242123
0.1985327452 0.6555622816 0.1524765193
0.1961693913 0.6544011831 0.1528452635
0.1882823259 0.6508328319 0.1519474983
0.1788534522 0.6326871514 0.06256769598
0.2222417891 0.6274802685 0.09754657745
0.2277481109 0.6759464145 0.09713040292
0.1751203239 0.6401206255 0.02996649593
0.2089273632 0.6606590748 0.1524613947
0.2633903325 0.6676858068 0.1526361704
0.2526469827 0.6423118711 0.09749895334
0.2225497216 0.6675480604 0.1522874236
0.2373675406 0.6824789643 0.05747622997
0.1863762289 0.6172257662 0.1224452257
0.2162984461 0.6643517017 0.1527660191
0.2425495684 0.6367175579 0.1325903684
0.177869007 0.657007575 0.007996907458
0.2324808687 0.6723697186 0.152554661
0.2073614001 0.6710885763 0.007991084829
0.2284795642 0.6704506874 0.1526302397
0.1756718755 0.6371230483 0.017573338
0.2262226194 0.6693681479 0.1523955017
0.2583407462 0.6776174307 0.1523940116
0.2568956912 0.6441195011 0.1123386249
0.242670387 0.6770036817 0.1525850147
0.2386945039 0.6805303097 0.09250908345
0.2024438828 0.6227286458 0.0226535704
0.2558383942 0.6444782019 0.08725026995
0.1928083748 0.6137253046 0.1425169259
0.2389567345 0.6753879786 0.1521436274
0.2524733841 0.6427528262 0.08237866312
0.2368277907 0.6743924618 0.1524493247
0.2079891711 0.62092489 0.1073810458
0.1871480644 0.6620305181 0.01252763346
0.2424997091 0.6811354756 0.1025750116
0.2582624555 0.6771672368 0.1123932898
0.1976131201 0.6159497499 0.1473881602
0.2559889853 0.6815037131 0.1526522189
0.1908982396 0.6148039103 0.09773269296
0.1926533282 0.6623837948 0.0576277338
0.2573314011 0.6430361271 0.1476120055
0.2521503568 0.6437569857 0.05740342289
0.1922984421 0.6137270331 0.1276082397
0.2083292007 0.6609520912 0.1472643167
0.1926330477 0.6539112329 0.1429745257
0.1976095438 0.666683197 0.03253597021
0.2055543512 0.6594739556 0.1480599046
0.222827062 0.6261668205 0.1574945897
0.2021388113 0.6578669548 0.1474426389
0.2002924085 0.6148812175 0.1648769677
0.198028475 0.655944705 0.1470189989
0.1838575006 0.6226747036 0.1323335618
0.2633047104 0.6676731706 0.1477830857
0.2158660144 0.6646188498 0.1481177956
0.2133218348 0.6708697677 0.08291099966
0.2126156092 0.663066864 0.1473664045
0.2476768792 0.637018919 0.1626505405
0.2470180541 0.6391775608 0.1026681066
0.1877494752 0.6174244881 0.05748724192
0.1819623411 0.6579150558 0.03261522949
0.2282469571 0.6707884669 0.1474683434
0.2449372858 0.6851225495 0.05148615688
0.2260035276 0.6696379781 0.1479778886
0.2174488604 0.6261356473 0.07242156565
0.2602235675 0.6740143895 0.04733284935
0.1849565059 0.6500934362 0.145107314
0.247375384 0.6841909885 0.07737220824
0.1819732189 0.6488748789 0.142963931
0.2103284299 0.6247345209 0.03760164604
0.2072808146 0.6714548469 0.01261528861
0.2586020529 0.6770295501 0.1476416737
0.2177360058 0.6315839291 0.1723269373
0.2425401062 0.6772828102 0.1475262642
0.2184992582 0.62560606 0.1122681722
0.2385845333 0.6755849719 0.1475425363
0.2274809033 0.6737984419 0.1177889928
0.2364359796 0.6746022105 0.1477798223
0.2393040359 0.6351820827 0.1173765436
0.1974002868 0.6562649012 0.1423252821
0.2526595294 0.6425820589 0.1713871658
0.1845905632 0.6501941681 0.1422185749
0.2558748424 0.6816292405 0.1471177638
0.2526763082 0.6814284921 0.1478088647
0.2471756637 0.679261446 0.1473752111
0.2526272237 0.6847758293 0.08228963614
0.2051341087 0.6597853899 0.1435607374
0.2022148073 0.6585194468 0.1426559687
0.25218454 0.6393366456 0.1706250012
0.1906458884 0.6596543789 0.07801392674
0.1887287796 0.6138035655 0.1224480495
0.2127124071 0.6636553407 0.142597422
0.2634785175 0.6670255065 0.1421470046
0.2597267926 0.6747176647 0.1457388252
0.2119074613 0.6737621427 0.01756616123
0.2305465341 0.6298946738 0.1549968421
0.2277268618 0.6710543036 0.1423273534
0.2372062057 0.6342359185 0.1375352293
0.2258626968 0.669905901 0.144639641
0.2081677318 0.6209251285 0.1374434829
0.2611473203 0.6730107665 0.1674940288
0.2224927098 0.6684881449 0.1424857378
0.2073963583 0.662361443 0.1325493157
0.1945687681 0.6551010609 0.1406360865
0.2602657974 0.6732583046 0.1178061739
0.2373386025 0.6830193996 0.04759033397
0.2225388438 0.6783825755 0.01240061689
0.1814237237 0.649110496 0.1380070448
0.183450833 0.6562256217 0.06763613969
0.189252004 0.6132171154 0.1710036099
0.1877297759 0.6194212437 0.0174208954
0.1790079772 0.6479433179 0.1377372444
0.2122147828 0.6678500772 0.1075402349
0.185706988 0.6545961499 0.1028979793
0.242213428 0.6775900126 0.1423552036
0.1909188181 0.6198483706 0.01711316407
0.197156325 0.6669556499 0.01748292521
0.2326348573 0.681421876 0.04746897891
0.1921138018 0.6542468071 0.1381173283
0.2473965436 0.6436616182 0.0125167137
0.2473074496 0.6520816684 0.1720971316
0.1874468476 0.6520889997 0.137444675
0.2370043546 0.6844525933 0.007801986299
0.1752295941 0.6415874958 0.0424521938
0.2583133578 0.6775488257 0.1421671808
0.2522981465 0.68167454 0.1424094886
0.2491038144 0.6804437041 0.1425897628
0.2522750795 0.68674016 0.04729579389
0.2074634582 0.6617376208 0.1373678595
0.2427392006 0.6380618215 0.06738506258
0.1975774467 0.6569772959 0.1373396814
0.1876509637 0.6176936626 0.05273893103
0.232554093 0.6319373846 0.1426087767
0.2473692596 0.6390203238 0.1275473684
0.1942271739 0.6554611325 0.1365679353
0.2631424069 0.6676883698 0.1371374428
0.2607029378 0.6726343036 0.1379701793
0.2142159343 0.6700130105 0.09611059725
0.2181063443 0.6765727997 0.01751377434
0.2221981436 0.6688843369 0.1377934813
0.1920424998 0.6576864123 0.1072353497
0.2491262704 0.640571177 0.09301123023
0.2145605683 0.6653157473 0.1368351281
0.2071726769 0.6388851404 0.1728148311
0.2439421266 0.6805639863 0.1170641482
0.2390263826 0.6751175523 0.1566313803
0.1809435934 0.6493944526 0.1326904148
0.1790575683 0.648434639 0.1328120977
0.1810792238 0.6276581883 0.07770022005
0.1844425201 0.6552268863 0.08710758388
0.2322988361 0.6736594439 0.1376054436
0.2249179184 0.6702947617 0.1367975771
0.2259652913 0.6796207428 0.03214635327
0.1914851218 0.6545703411 0.1334394813
0.1832987666 0.6506690979 0.1320852041
0.255969733 0.6816436648 0.1379161626
0.1974140555 0.6184856892 0.07254211605
0.212835148 0.6209003925 0.1623496562
0.2487374097 0.6807155609 0.1373158097
0.2624878287 0.6464185715 0.1276047081
0.2126550823 0.6266202927 0.01731169969
0.2460206449 0.6795204878 0.1380050778
0.2322468609 0.6363968849 0.008389336057
0.2496080697 0.640360713 0.1124072298
0.1761680245 0.6374834776 0.02751161158
0.2424692065 0.678168714 0.1374767274
0.2439957261 0.6402447224 0.03722530976
0.2119723558 0.6731914282 0.008117612451
0.1836104989 0.6503207088 0.1366559565
0.2263945639 0.6293346286 0.1326281875
0.1936009824 0.6558056474 0.1318960637
0.1861850917 0.6175637841 0.132476151
0.252592206 0.6821336746 0.137230128
0.1949461401 0.6200484037 0.03143416718
0.2543830276 0.6401937604 0.1620043963
0.2115776688 0.6643519402 0.1328398436
0.200792551 0.6196276546 0.07240188867
0.2035582811 0.6606073976 0.1319840103
0.2577483654 0.6480746269 0.04247895256
0.1917850375 0.6143430471 0.1127981767
0.2238740176 0.670360446 0.1323412508
0.2175423056 0.667309463 0.1323834658
0.1805643588 0.6495518684 0.1281501502
0.2473148406 0.6879920363 0.0127430195
0.2043197006 0.6655188203 0.09256014973
0.2325271666 0.6712666154 0.1714076996
0.2151891738 0.6748771667 0.01049639471
0.2225222141 0.6288592219 0.05751330033
0.1769931912 0.6366038322 0.08247224987
0.1876789778 0.6584051251 0.07233857363
0.2085557431 0.6204122901 0.1519459486
0.2321753055 0.6741475463 0.1330138892
0.1822482198 0.6587457657 0.02256134897
0.1911375076 0.6549409628 0.1293471158
0.2522104979 0.684707284 0.08750636876
0.2226935476 0.6766252518 0.06277797371
0.1875661165 0.6532341242 0.1276666373
0.2227129191 0.6727492213 0.107666716
0.2125688493 0.6617575288 0.1718919277
0.182865575 0.6508859396 0.1269131452
0.2582621276 0.6774383187 0.1324338019
0.2426216453 0.6786862016 0.1327455044
0.2027862221 0.6609341502 0.1272513866
0.1797270477 0.6554687619 0.04680278897
0.1930833012 0.6561079025 0.1269942522
0.2558133006 0.6820291281 0.1323661506
0.2370990515 0.684179008 0.02241102792
0.2176478803 0.627102077 0.1719002277
0.1924594343 0.6129207015 0.15246436
0.252625227 0.6824388504 0.1323623061
0.2481701225 0.6808925867 0.1322027743
0.1788720489 0.6514907479 0.09251857549
0.219371736 0.6702433825 0.1166204214
0.2341697514 0.6752563715 0.1312794685
0.2377249002 0.6323236227 0.1627033353
0.2131946683 0.665961802 0.1271333545
0.1977019012 0.616173327 0.1225871667
0.2526656389 0.6774844527 0.1713091135
0.2210059315 0.669537425 0.1282608807
0.1837000102 0.6229404211 0.117399998
0.2582320571 0.6777281165 0.02734898776
0.2176357359 0.668017447 0.1276117265
0.2215598524 0.6242148876 0.1677981019
0.2612504959 0.6713055372 0.1272078753
0.2633084059 0.6669725776 0.1236172542
0.2047348768 0.6700742245 0.03645877913
0.1872080266 0.6170095205 0.0775623396
0.1972236484 0.6628370285 0.08262504637
0.2173066288 0.6372496486 0.1726489365
0.2608579397 0.6726942658 0.03881727904
0.2375675887 0.6770882607 0.1275524646
0.2335344404 0.6754528284 0.1268313974
0.1925703436 0.6574534178 0.1122788042
0.1976638734 0.6589199901 0.1229230613
0.2078234702 0.6716885567 0.03254301101
0.1813290715 0.6278683543 0.05748097971
0.2226074189 0.6273124218 0.1713697761
0.2595490813 0.674790144 0.1268668771
0.2163461298 0.6245301962 0.1223275065
0.1976369619 0.6163415909 0.1174388304
0.1800632477 0.6301336288 0.1674732715
0.2598848343 0.6743545532 0.1438419372
0.2524196804 0.6826415062 0.1276630908
0.2205944955 0.6698533297 0.1243613809
0.2024052739 0.653470099 0.172766611
0.1862163246 0.6173272133 0.1677865833
0.1822569668 0.6514569521 0.1173784435
0.2374798059 0.6840776205 0.02747184411
0.2309682965 0.67473948 0.123156406
0.2276544273 0.6715739369 0.1372845471
0.2276493907 0.6733313799 0.122640498
0.2224874198 0.6710641384 0.1220696494
0.2578346729 0.6471958756 0.05749825016
0.1995885074 0.6601067781 0.1212151945
0.1792184412 0.6329830885 0.1373774856
0.2389947325 0.635217905 0.102308251
0.1923829615 0.6568580866 0.1173564717
0.1955419928 0.659460783 0.1080028787
0.1868281662 0.6538784504 0.1178745925
0.2377246916 0.6816135049 0.07228571177
0.2581676841 0.677573204 0.1226675063
0.2473613471 0.6863222718 0.04290208593
0.222574845 0.6780295372 0.007944867015
0.1928542554 0.6628551483 0.05258164555
0.2525387704 0.6810814142 0.1525593549
0.2656983435 0.6467908025 0.1496887058
0.2331060022 0.6758135557 0.1220616326
0.2416748106 0.6389636993 0.03759346902
0.227428779 0.6720617414 0.1322263479
0.1994521022 0.6604869366 0.117320098
0.2560210228 0.6816090941 0.1221002936
0.187559709 0.6198433042 0.007838629186
0.2470490783 0.6389397383 0.1173534319
0.252355516 0.6829201579 0.1229921579
0.2423317283 0.6374864578 0.07751896232
0.24751243 0.6813758612 0.1224463359
0.1914835721 0.6639698744 0.02245871164
0.1889654696 0.6140912175 0.1126911864
0.2443136126 0.6803047657 0.1217525974
0.2030761689 0.622870028 0.17203179
0.1993649006 0.6557356119 0.1677494943
0.2026082724 0.6620954871 0.1173264757
0.1889083385 0.6550900936 0.1167395562
0.2172536701 0.669081986 0.1179331094
0.2324043065 0.6781705022 0.09287219495
0.2613381147 0.6710776091 0.1218255535
0.2090958506 0.665327251 0.1169290394
0.262399286 0.6462067366 0.1324402392
0.1823150218 0.6518999338 0.1123777926
0.2586369514 0.6770110726 0.05768013373
0.1784584969 0.6497148275 0.1125393584
0.2620500922 0.669534564 0.1174292564
0.2224843651 0.6715728045 0.117353335
0.203146711 0.6207258105 0.06738682836
0.2572245598 0.6462095976 0.06736753881
0.1887224764 0.6553817987 0.1126109958
0.1833801121 0.6229182482 0.1575487703
0.2424313426 0.6368082166 0.112421833
0.1864385009 0.6541304588 0.1128315702
0.2439229935 0.6850973964 0.04688918218
0.2020900548 0.6271694899 0.1722696126
0.1836967468 0.6226169467 0.09239181876
0.1792755872 0.6502009034 0.1122424304
0.2580576539 0.6776916385 0.116941072
0.2411054969 0.6794692874 0.1175170764
0.2375112623 0.6780750155 0.117686674
0.1764093786 0.6547505856 0.02775589749
0.2180111855 0.6260389686 0.082421951
0.2325280607 0.6760587096 0.1171838939
0.198900938 0.6607689857 0.1121625602
0.1876094043 0.6561274529 0.09759902954
0.2477830797 0.6855946779 0.05735280365
0.2557649016 0.6820802093 0.1181354821
0.1928106844 0.6136917472 0.1475436389
0.2476867139 0.6818108559 0.117651172
0.2085302025 0.6655751467 0.1123096049
0.2624492943 0.6685657501 0.11277996
0.2490378767 0.6400915384 0.1074404642
0.2275767326 0.6767764091 0.08721123636
0.2163023055 0.6692529917 0.1127983406
0.2271665633 0.6793761253 0.04783786833
0.2122832686 0.6673560143 0.1125593185
0.2263526469 0.6793290973 0.04252247512
0.237438336 0.6765266061 0.1323528737
0.1823728532 0.652353704 0.107361652
0.1830341071 0.6574694514 0.04744292796
0.1780959219 0.6498317719 0.1082794145
0.2126047611 0.6271309853 0.008581772447
0.2607047558 0.6722195148 0.1125332713
0.2268803716 0.6740899086 0.1128730252
0.2326334715 0.682595253 0.008229773492
0.2225932181 0.6722089052 0.112531133
0.2631529272 0.6672301292 0.1035630554
0.2189337313 0.6705903411 0.111874111
0.2458740324 0.6398302317 0.06433068961
0.2075249851 0.6190811992 0.1578081101
0.1884227097 0.6556577086 0.1079532206
0.1826736331 0.6273887157 0.1714219153
0.256249696 0.6813985109 0.02682440169
0.2521264851 0.6859631538 0.06232526898
0.2431554496 0.6806110144 0.1123235151
0.1803224832 0.6302143931 0.1528079659
0.2289789021 0.675136447 0.1114704162
0.2081015408 0.6658768058 0.1074062511
0.2551707029 0.6448953748 0.06882653385
0.205733031 0.6646463871 0.1079056263
0.2087807804 0.6704418063 0.06178542599
0.2027791589 0.6632193923 0.1075056568
0.2426618487 0.6791530848 0.1277132928
0.2597653568 0.6746984124 0.07770135999
0.2628460526 0.6678304672 0.107533969
0.2157191485 0.6694694161 0.1079971194
0.1861804575 0.6168623567 0.1574550867
0.1949543953 0.6650758982 0.03655782342
0.187917918 0.6269927025 0.172308743
0.2610734999 0.6716225743 0.1073459014
0.2377010882 0.679015696 0.1074305698
0.1800716668 0.6304478049 0.1072602198
0.2264173627 0.6743746996 0.1078774184
0.1778871864 0.6563936472 0.01749472506
0.2082297653 0.6208248138 0.122395888
0.2604632974 0.6494730711 0.04719895124
0.1971538514 0.659248054 0.1180078909
0.2184781283 0.6708823442 0.1069909111
0.2215660065 0.6691958904 0.1328465939
0.1879986674 0.6558852792 0.1027017161
0.2327217311 0.6370806098 0.1721630394
0.2581524551 0.6774892211 0.1081815511
0.2621050775 0.6698309779 0.07023480535
0.1771730632 0.6369333863 0.1073513851
0.2325462401 0.6769744754 0.1076171622
0.2004122287 0.6143221259 0.1704137623
0.228608951 0.675406158 0.1069003046
0.2374227494 0.6414282322 0.1722655743
0.1981029809 0.6613469124 0.1025106832
0.195110172 0.659763515 0.1026974618
0.1921147853 0.6581902504 0.1022477373
0.2120642811 0.6241070032 0.06733118743
0.2038035989 0.6202746034 0.08210606873
0.2559468746 0.6818177104 0.1077589393
0.2476441413 0.6824907064 0.1076709628
0.2424505055 0.6807585359 0.1073302925
0.1834868491 0.6224081516 0.01259527449
0.2405551821 0.6799368262 0.1090867966
0.2075703144 0.6661418676 0.1024639532
0.176812008 0.6376186013 0.09753745049
0.2416039556 0.6791904569 0.1227107942
0.2594829798 0.6747751236 0.1057338566
0.2526942194 0.6839102507 0.1071219295
0.2592285275 0.6456138492 0.1030390337
0.2372052372 0.6316301823 0.1674150229
0.2223622948 0.6667773128 0.1674690247
0.215241313 0.6697745323 0.1030288339
0.1825286448 0.6532621384 0.0974258408
0.2026633173 0.6213247776 0.05226321518
0.1788180172 0.6510837078 0.09761650115
0.2604162693 0.6731925011 0.09261187911
0.2259343117 0.6746462584 0.1027608961
0.2181837112 0.6712377071 0.1021877676
0.1964382529 0.6644939184 0.05717361718
0.1855173111 0.6548487544 0.09870733321
0.2579689026 0.6779112816 0.1028781757
0.2053640485 0.6198092699 0.1124278307
0.2371048182 0.6792126894 0.102320686
0.2157081217 0.6245731115 0.0975843519
0.2324308008 0.6773347259 0.1028489769
0.2281849235 0.6756742597 0.1020509377
0.1817443967 0.6274876595 0.05225737393
0.2390370369 0.6350541711 0.1223777011
0.2062288076 0.6643900275 0.1128970832
0.1974569559 0.6614760756 0.09768669307
0.1970669776 0.6191975474 0.05775731057
0.192187041 0.6587007642 0.09724441171
0.1917719841 0.6643563509 0.01243978273
0.2563026249 0.6812173128 0.1025985032
0.242612958 0.6841192842 0.0574936308
0.2024074793 0.631036222 0.1724471599
0.2023604959 0.664020896 0.09752292931
0.2438765466 0.6353384852 0.1619380563
0.181937933 0.6582303047 0.0276039131
0.2271812409 0.6684155464 0.1720308065
0.2533763349 0.6805520058 0.1678646803
0.2525981963 0.6840597987 0.1020540297
0.2396495491 0.6802034378 0.1016741097
0.1990252435 0.6553158164 0.1579389274
0.2170214206 0.6711945534 0.09728740901
0.2047439218 0.6652579904 0.09724882245
0.2611428201 0.6716054678 0.09709815681
0.1876558214 0.6516442895 0.1421998143
0.259931922 0.6740838289 0.09922999144
0.243687883 0.6409410238 0.02282577008
0.1859954745 0.6596908569 0.04184406623
0.2224876583 0.6736338735 0.09767867625
0.2596648932 0.6451514363 0.1226613969
0.1874127537 0.6564679146 0.0926983878
0.2583268285 0.6773390174 0.09767512977
0.2408416271 0.6848897338 0.0335868746
0.2364084423 0.6793246269 0.09737375379
0.2598701119 0.6746958494 0.05222690105
0.2322588563 0.6777012348 0.09778475761
0.2057530582 0.6197572351 0.1323595196
0.2473164946 0.6860088706 0.04778809845
0.2258424014 0.6749805808 0.09886482358
0.1970642805 0.6617673039 0.09266965836
0.1918401718 0.6589890718 0.09230578691
0.2559961081 0.6818175912 0.09696272761
0.2290418595 0.6304571033 0.1123824567
0.2472675443 0.6830493212 0.09736738354
0.2393094301 0.6804138422 0.09707424045
0.207798779 0.6672773361 0.09240604937
0.2582307458 0.677508235 0.02184959501
0.2014384717 0.6640558839 0.09254131466
0.1940724105 0.6602554321 0.09189056605
0.2013724595 0.6689010262 0.02240187116
0.1968678236 0.6639506817 0.06758822501
0.2423842847 0.6366598606 0.1176203638
0.2521082461 0.684320569 0.09738550335
0.1768190861 0.6376418471 0.1022972316
0.2140565366 0.6702772975 0.09261456877
0.1818781197 0.6536535025 0.08775744587
0.232645154 0.633261323 0.06245003268
0.2622145712 0.6695907116 0.06884522736
0.2219137251 0.6738431454 0.09281200916
0.2172411978 0.6717948914 0.0921843797
0.1964544356 0.6542369723 0.1674640179
0.261472702 0.6708512306 0.1020743102
0.1874781549 0.6569641232 0.08763990551
0.2323169261 0.6316004992 0.1473207325
0.2580143809 0.6779839396 0.09200125933
0.2248565406 0.675211668 0.09195999056
0.2121139467 0.6723302603 0.05731368437
0.2277046591 0.6431060433 0.1726553738
0.2570110559 0.6439389586 0.1175629273
0.1971436888 0.6623032093 0.08765645325
0.1936260015 0.6604737043 0.08713760972
0.1793516874 0.6320545077 0.05749139562
0.2223474234 0.6279295683 0.08253036439
0.1887186021 0.6128748059 0.1427544206
0.2126261592 0.6714439392 0.07258832455
0.1889793575 0.6133106947 0.1324739903
0.2377367914 0.6361446381 0.05252283067
0.2361622006 0.6684058905 0.1731291711
0.2183897346 0.6256591678 0.1373796612
0.2228347957 0.6732753515 0.1027816236
0.2557466626 0.6823299527 0.09289675951
0.1791114211 0.6488292217 0.1278460324
0.2474973351 0.6834173203 0.09228835255
0.2547770143 0.684274137 0.07702967525
0.2614372671 0.649409771 0.0576730445
0.2367888093 0.6341497898 0.1025090218
0.235915035 0.6795650125 0.09203741699
0.2107075453 0.6246635914 0.04238587618
0.2474185675 0.6790219545 0.1524367929
0.2126340866 0.6663510203 0.1221099868
0.2283485085 0.680539012 0.03251324221
0.2557925582 0.6808008552 0.1675977409
0.2038374245 0.6657692194 0.08758191764
0.1815267652 0.6270393729 0.1624877751
0.2009427249 0.6643049121 0.08751934022
0.1887053996 0.6612086296 0.04254712164
0.2485611588 0.6852493286 0.06682886183
0.2624452412 0.66891855 0.08937831223
0.2196424007 0.6750891209 0.06615780294
0.242435202 0.6366204619 0.1375670433
0.2272955775 0.6320892572 0.03257510066
0.2323991358 0.6715300083 0.1673796475
0.2114474177 0.6695251465 0.08763797581
0.2049442083 0.6704981923 0.02714183368
0.1819326729 0.6540599465 0.08299075812
0.1814407855 0.6271989942 0.1676284969
0.1789806932 0.6523097754 0.08226533979
0.1989147365 0.6552295685 0.1627987325
0.2608187497 0.6724008322 0.08725328743
0.2326154709 0.6684535742 0.1731380373
0.2216286361 0.6741737127 0.0879579857
0.2076648474 0.6681917906 0.08234295249
0.18596448 0.6173906326 0.1425431669
0.2124594748 0.67366153 0.03771450371
0.239710331 0.6353999972 0.1273924112
0.2173547149 0.6723253727 0.0872303471
0.1909775734 0.6593747735 0.0831644237
0.2068125159 0.6592000127 0.1717153341
0.1875442415 0.6574538946 0.08256112784
0.1833826005 0.6485654116 0.1706540883
0.202449128 0.6186305285 0.1076141298
0.2583512068 0.6773763299 0.08726987988
0.2241973579 0.6753508449 0.08732870221
0.1932523847 0.6607534289 0.0820306316
0.2556726336 0.6825395823 0.08790756017
0.2375604063 0.6362851262 0.04745887965
0.2378109992 0.6806018353 0.08729244769
0.2368785143 0.6340900064 0.1275291294
0.2030818909 0.6658729911 0.08266175538
0.2423415333 0.6765252352 0.1575255394
0.2615284622 0.6710116267 0.07778447121
0.2341480255 0.630287528 0.1664006263
0.2109610438 0.6697797179 0.08256254345
0.1816582978 0.6272599101 0.1274537295
0.1814922243 0.654222846 0.07758964598
0.2555897832 0.6824375391 0.1128914878
0.2224941701 0.6376512647 0.1725617647
0.2211816162 0.6744228601 0.08297667652
0.2284237146 0.6809692979 0.01242608391
0.2584297061 0.6772973537 0.08268195391
0.1855079383 0.6200106144 0.01521558501
0.2227173895 0.6291370988 0.05254001915
0.2327090204 0.6791202426 0.08267758042
0.2026045769 0.6229844689 0.01768432371
0.1876811534 0.6182317138 0.03732633218
0.2234418094 0.6754748225 0.08209301531
0.1814985424 0.6589138508 0.01257170178
0.1922916174 0.6182825565 0.04758687317
0.178400889 0.6530544758 0.06772828102
0.1930823326 0.6611061692 0.07716995478
0.2560144663 0.6820378304 0.08266742527
0.2584540546 0.6773222685 0.07211729139
0.1789262444 0.651900053 0.08740175515
0.1831622869 0.6564328074 0.06237070635
0.2424997985 0.6824258566 0.08289451152
0.1984996647 0.6157815456 0.1521612406
0.2373946607 0.6808066368 0.0822673291
0.2101304084 0.664921999 0.1243366674
0.2633865774 0.6459490657 0.1473928988
0.2074959129 0.6685554981 0.07750207931
0.2068391144 0.671444118 0.01767628267
0.2084236741 0.670550704 0.05771566182
0.252563715 0.6851859689 0.08242390305
0.2300021946 0.6349113584 0.01149889454
0.2477320582 0.6840175986 0.08200424165
0.2277631909 0.6763834357 0.09232126176
0.1871987581 0.6618850827 0.01746676303
0.2274387479 0.6270151138 0.1674350649
0.2612915635 0.671688199 0.05708320439
0.2128407061 0.6711016893 0.07781472802
0.2608805895 0.6726849079 0.1519116163
0.1824314296 0.6527976394 0.1023242846
0.1811768562 0.6544209719 0.0727533251
0.2462936491 0.6845732331 0.06765547395
0.2230006158 0.6756739616 0.0773788169
0.1870260537 0.6535077095 0.1226774231
0.2207570523 0.6746450067 0.07807130367
0.2175889909 0.6733311415 0.07725199312
0.1826233268 0.6512380242 0.1220506132
0.2322671115 0.6793267727 0.07794310153
0.1972658336 0.6637563109 0.07265677303
0.1926937103 0.6565325856 0.1221850961
0.1927238256 0.661303997 0.07225866616
0.2239886373 0.6303111911 0.03745792806
0.2003001422 0.6648612618 0.07838516682
0.2321333587 0.6291791797 0.1678738892
0.256390363 0.681333065 0.07732632011
0.2422235906 0.6826587915 0.07776862383
0.1878491044 0.6610931754 0.03741069511
0.2375597507 0.6812064052 0.07728496939
0.1920742691 0.6141217947 0.117686376
0.2346384227 0.6802718639 0.07697375864
0.2025590688 0.6683374643 0.0477562733
0.20752877 0.623723805 0.03746854886
0.1977461725 0.6232447028 0.1721175462
0.2022099495 0.666354537 0.07233918458
0.2521869838 0.6853621602 0.07739471644
0.2382977307 0.6758849621 0.1424628347
0.1800117791 0.6307330728 0.1116030961
0.1951588094 0.6148502827 0.1327475309
0.2099622041 0.6700894833 0.07358355075
0.2369540036 0.6340676546 0.1175119802
0.2421647459 0.6369076371 0.09757315367
0.1875035763 0.652713418 0.1325761527
0.2474234402 0.6820502281 0.112685822
0.2026238441 0.6184185147 0.1175202951
0.252651304 0.6419181228 0.1123550981
0.1809934974 0.6547353864 0.06713700294
0.2206290811 0.6749104261 0.07389478385
0.2177109718 0.6737939715 0.07222237438
0.1926224828 0.6616452932 0.06746935099
0.2314271331 0.6793682575 0.07295980304
0.24082461 0.6797350049 0.1125480533
0.2593610287 0.6454380155 0.1070588082
0.1992776394 0.6652097106 0.06801473349
0.1958548278 0.6199187636 0.03802734613
0.255892992 0.6819572449 0.02247625589
0.2216877341 0.6293054819 0.03751378506
0.2617984116 0.6441819668 0.1577139795
0.1771325618 0.6373872161 0.05277378112
0.2080687582 0.6208681464 0.1426306814
0.2559293509 0.6820768118 0.07244476676
0.188852936 0.6131029129 0.1374669671
0.1875653416 0.6178029776 0.04747540876
0.1820079982 0.6271950006 0.04757814482
0.2499116361 0.6850296259 0.07536900043
0.2072335035 0.6636441946 0.1227574199
0.2468418479 0.6843903065 0.0724991858
0.1959771365 0.6144903898 0.1530676186
0.1815242767 0.6272697449 0.1025254503
0.202159211 0.6181294918 0.1424244493
0.2423979491 0.6830604076 0.07277867198
0.2023771554 0.666010499 0.07726665586
0.2342915982 0.6804568768 0.0721680671
0.2023041546 0.6668245196 0.06724722683
0.1787611544 0.6333532333 0.1625555903
0.1785653085 0.6535265446 0.06271667033
0.1923565716 0.6159754395 0.08747097105
0.2581022978 0.6777129769 0.1279840171
0.1825451553 0.6536717415 0.09251518548
0.1914202422 0.6592192054 0.08751765639
0.2056934834 0.6698608398 0.04845384508
0.2651646137 0.6477611661 0.127464205
0.2557523847 0.6823413372 0.06802538037
0.2519287169 0.6855877042 0.07223145664
0.1870709658 0.622323215 0.1718870848
0.22255072 0.6278860569 0.08765568584
0.2492576391 0.6851043105 0.07197985798
0.2600977421 0.6739544868 0.02581994236
0.1994273961 0.6150148511 0.1607649773
0.1835158467 0.6226220727 0.1526490748
0.2391570657 0.6350543499 0.1408778578
0.2654500008 0.6464108825 0.1524871886
0.2265649438 0.6293250918 0.1026279926
0.2125373632 0.6229047775 0.112663947
0.1896041334 0.6600788236 0.06561376154
0.2149541974 0.6751539111 0.01746529154
0.1810300499 0.6549980044 0.06388765574
0.260540992 0.673094511 0.06742643565
0.2531071603 0.6806963682 0.1623923928
0.1900089532 0.6548933983 0.1242947429
0.1783942729 0.6560559273 0.02718212642
0.217691347 0.6741443276 0.06748637557
0.1850286126 0.62042588 0.0413412787
0.2089201212 0.670173943 0.06642346829
0.2524673939 0.6465954185 0.01254160795
0.2501378357 0.6399171948 0.1444279701
0.1896505803 0.6603460908 0.0623810403
0.2579814196 0.678134203 0.06721356511
0.2075370401 0.6230312586 0.05252134055
0.2422478646 0.6462207437 0.1722869873
0.2337600589 0.680595994 0.06767719984
0.2272964418 0.678191185 0.0672319904
0.242555365 0.6860119104 0.02257643826
0.1967081577 0.6642491221 0.06266611069
0.2258363962 0.6799451113 0.01743469574
0.2425712347 0.6834759712 0.06777413189
0.2223253548 0.627266407 0.1074568182
0.222523272 0.6775426865 0.04732887819
0.2028651237 0.6637825966 0.1025708169
0.2490792572 0.6404141784 0.09771250188
0.1922558248 0.6523807049 0.1713581383
0.237720415 0.6819829941 0.06713971496
0.2064864933 0.6692398787 0.06299360842
0.2423777431 0.6864418387 0.0123610897
0.2077874243 0.671489954 0.03750080988
0.2319765836 0.6821021438 0.02764835767
0.1805030406 0.630132854 0.1422152519
0.245848015 0.6394843459 0.07293277234
0.1829576194 0.6566573977 0.05742387846
0.240912661 0.6346008182 0.1540317386
0.2609516084 0.6507413387 0.03255176172
0.2421489507 0.6381816864 0.05760902539
0.2426733226 0.6815267801 0.0976805836
0.178619802 0.6539378762 0.05748266354
0.2026927173 0.6183337569 0.1325940937
0.2609053254 0.672347188 0.06258388609
0.2520280182 0.6857715249 0.06728768349
0.2610510588 0.651442349 0.02291156538
0.2574971914 0.6412391663 0.1673497409
0.1799553037 0.646243155 0.1622558534
0.2170618027 0.6742280722 0.06247957796
0.1777244657 0.6559520364 0.02227327228
0.254838109 0.6840634346 0.05239795148
0.1875707805 0.6177014112 0.1714315563
0.2124625444 0.6721280813 0.06261139363
0.1868526042 0.6589937806 0.05798058957
0.2583160102 0.6775260568 0.06244361401
0.1925559044 0.6522072554 0.1573033631
0.189318791 0.660523653 0.05710577965
0.1891458333 0.650633812 0.1683605462
0.2518324554 0.6864108443 0.05717460811
0.2157334834 0.674572885 0.04798491672
0.2274425179 0.6786031723 0.06217154115
0.2324309647 0.672776401 0.147384122
0.2025319189 0.6676591039 0.05745561048
0.2056297958 0.6195964217 0.1475673616
0.1988585144 0.6657532454 0.05761971325
0.2368327379 0.6740654707 0.1575224996
0.2525043488 0.6418060064 0.1076722145
0.2558450401 0.6820919514 0.06210862845
0.2523426414 0.683588028 0.1123231277
0.242750302 0.6838563681 0.06273767352
0.2375918478 0.6822579503 0.06227106601
0.2524914443 0.6482138634 0.1718600541
0.1972799748 0.6209474802 0.02742029727
0.2025740892 0.6215431094 0.04720983282
0.2521452606 0.6846083403 0.09234496206
0.2061074972 0.6694298983 0.05759938061
0.2127126753 0.6739491224 0.03258027136
0.183059454 0.6570912004 0.05235155672
0.1790938228 0.6333480477 0.1424139291
0.2025191635 0.6673119664 0.06227471679
0.178358525 0.6541294456 0.05265709385
0.248309195 0.6854735017 0.06202064455
0.2161774635 0.6741485 0.0577855818
0.201380223 0.6593983769 0.1331434697
0.1943333 0.6153932214 0.1118530259
0.1891808212 0.6607643366 0.05250065774
0.1867194176 0.6592960358 0.05264589936
0.1799236983 0.6551776528 0.05184767395
0.2125020772 0.622910738 0.1425438225
0.2228326052 0.6770259142 0.05768406019
0.2192815393 0.6755514145 0.05715315044
0.2324269563 0.6807783842 0.05759890005
0.252122581 0.6423878074 0.08764198422
0.2304797471 0.6799618602 0.05939493701
0.242505759 0.6388840675 0.04756200686
0.2125988007 0.6669696569 0.1173682362
0.2605847716 0.6732949018 0.04239586741
0.227706477 0.6790265441 0.05722661689
0.2025456578 0.6679952741 0.05261417106
0.1983457953 0.6658519506 0.05232603848
0.2494233996 0.6801983118 0.1469904929
0.1959082037 0.664544642 0.05252194777
0.2160460204 0.624555707 0.1025913805
0.2561591864 0.6815783381 0.05736672878
0.2544688582 0.6847373247 0.05786284059
0.2457990646 0.6849207282 0.05987899005
0.2081293315 0.6707415581 0.05258820578
0.2625142932 0.6459084153 0.1422332227
0.2058469802 0.6696240306 0.05276114121
0.261526525 0.6713211536 0.05364414304
0.2065956742 0.668923676 0.06785326451
0.2606519759 0.6435902715 0.1707455516
0.1976440549 0.6576778889 0.1325198561
0.2584277689 0.6774849892 0.05325145274
0.2160068303 0.6743867397 0.05299479514
0.1974595487 0.6329308152 0.1725506485
0.2277473211 0.6311825514 0.05742142349
0.2123510987 0.672762692 0.05231321231
0.2222237587 0.6285454035 0.06259120256
0.1886370778 0.6608228087 0.0474068597
0.2063070685 0.6193025112 0.1525447965
0.1864135861 0.6594943404 0.04773015901
0.2312499136 0.634257853 0.02742341533
0.2227358371 0.6282467842 0.07745376974
0.2256600559 0.6797923446 0.02279245481
0.2469926924 0.6881278753 0.008181422949
0.227495268 0.6792230606 0.05267496407
0.2226479203 0.6772913933 0.05237362906
0.1792359799 0.6328036189 0.1323240995
0.2587282658 0.6458948255 0.09218981862
0.1959734708 0.6648625135 0.04861936346
0.2230765969 0.6707105041 0.1268097907
0.192935437 0.6632810831 0.04736616835
0.2564632893 0.681137383 0.05262320861
0.2577758729 0.6436249018 0.1425219625
0.2561212182 0.681751132 0.04731123522
0.1989880353 0.6203527451 0.04751416668
0.2055785507 0.6197178364 0.1376756877
0.2372538894 0.6827232242 0.05238112062
0.1966806799 0.6541665792 0.1577039361
0.2464005798 0.6792865396 0.1427145451
0.2324690968 0.6810790896 0.05260219797
0.2153316587 0.6249390841 0.07999973744
0.2285085618 0.630361855 0.09723223001
0.1983343959 0.6662112474 0.0472153686
0.2495678961 0.6401826739 0.1174868271
0.2478096932 0.6858674884 0.05259115249
0.2422666997 0.6842757463 0.0526226908
0.2078137696 0.6613017321 0.1421945691
0.1813786328 0.627828598 0.1123003438
0.2178668976 0.6758201718 0.04269101098
0.1838611513 0.622159183 0.0824450776
0.2123844475 0.6730901599 0.04747663066
0.2077874839 0.670940578 0.04732859507
0.2523483634 0.6414202452 0.1273004413
0.1822347492 0.6573768258 0.04247640446
0.2176723182 0.676158607 0.03224428743
0.1803694665 0.6498677731 0.1236601472
0.1787743121 0.6552329659 0.042361781
0.2519343793 0.686638236 0.05223001912
0.1978674382 0.666275382 0.04260195419
0.2295565009 0.6801214218 0.05093359947
0.2222642899 0.6678795218 0.147365436
0.2221911997 0.6270323992 0.14748016
0.2532892227 0.6462100148 0.02762858011
0.2497898638 0.6401150227 0.1324121356
0.2178763896 0.675563097 0.04739650711
0.258497417 0.6774203181 0.04728222638
0.1931393147 0.6637343168 0.04227588326
0.229677245 0.6803725362 0.04707262665
0.19573237 0.6149530411 0.1494589448
0.2027791142 0.668787241 0.04269670695
0.178822428 0.6556046605 0.03771748394
0.2624189258 0.6502410173 0.05415099114
0.2073456198 0.6214409471 0.0875326544
0.2354914844 0.6797991991 0.08703740686
0.1773254573 0.6547033191 0.03696520999
0.2417151034 0.6844078898 0.04743499681
0.2124192715 0.6734040976 0.04261609539
0.2480901331 0.6422239542 0.1717446148
0.2077562958 0.6712359786 0.04241661727
0.2122448534 0.6736956835 0.01234782487
0.2628766596 0.6680245399 0.1329294592
0.2154756188 0.6748027802 0.04230275378
0.2174095064 0.6758657694 0.03736432269
0.2126362175 0.6228182912 0.1175281778
0.1920367032 0.6634207964 0.03757094219
0.1817049682 0.626981616 0.15257819
0.1771673411 0.6374955177 0.04239971563
0.2581905425 0.6779903769 0.04205899686
0.2415036708 0.6394638419 0.02746765129
0.239959836 0.6350982189 0.1456988156
0.2097538561 0.625205934 0.02296863124
0.2291298062 0.6803885698 0.04282623902
0.20557037 0.6196712852 0.1177645996
0.2275319546 0.6317011714 0.04249046743
0.2223672867 0.6777334213 0.0423408635
0.1978754997 0.6665702462 0.03767376393
0.1996725649 0.6201071739 0.05668865889
0.255810231 0.6822898388 0.04291462526
0.2399788499 0.6850911379 0.0243141558
0.2258935124 0.6795627475 0.008057293482
0.2306070626 0.6797679663 0.06297434121
0.2613508105 0.6444390416 0.1526754946
0.2026227564 0.6689844728 0.03757868707
0.1782521755 0.6556218863 0.03223334253
0.2027145177 0.6183168292 0.1274591833
0.1763640493 0.6544041038 0.03245317936
0.2522137761 0.6867252588 0.04236396775
0.2435878962 0.6852983832 0.04207641631
0.2343601137 0.6354860663 0.03228874877
0.2413195819 0.6845899224 0.04230426252
0.1874831617 0.6611864567 0.03260347247
0.1984395385 0.6610457897 0.1072397754
0.1851238757 0.6598299742 0.0324873887
0.2583579123 0.6776272058 0.03738307208
0.1808129549 0.6270948052 0.01752655022
0.1861421168 0.6164849401 0.1529663354
0.2222093195 0.6778829098 0.03748274967
0.2311462909 0.6293073893 0.1624675691
0.2126881331 0.6228577495 0.1225504577
0.2260066867 0.6799443364 0.01266865712
0.2261538655 0.6794573665 0.03769703582
0.255862087 0.6822171807 0.03718129545
0.2425329387 0.6361613274 0.1474036276
0.2377179265 0.683660686 0.0377499871
0.2329013795 0.6820001602 0.03717973828
0.2048231363 0.6702713966 0.03248034418
0.1842620075 0.6555595994 0.0818349719
0.1775377244 0.6369360685 0.1521695405
0.1784646511 0.65273875 0.07247070223
0.2024987489 0.6691461205 0.0322226584
0.247232914 0.6866006255 0.03758483008
0.2186970711 0.6257032156 0.1276274025
0.2432058007 0.6854560971 0.03695129603
0.2122963518 0.6689206958 0.09782329202
0.2083381116 0.6208305359 0.1474430114
0.2409861982 0.6847164035 0.0378343761
0.2188578993 0.6257229447 0.1076340526
0.222229898 0.6780663133 0.03273396939
0.1971883178 0.6667066813 0.02758430317
0.2124122828 0.6624289155 0.1522889584
0.1918759048 0.663929522 0.02761658095
0.2018291801 0.6690004468 0.02743182704
0.1764420122 0.6549938917 0.02438998781
0.2274512649 0.6771343946 0.08235444129
0.2573949099 0.6437616348 0.1326393634
0.256192714 0.6816182733 0.03227612376
0.2446259856 0.6400917768 0.04635767639
0.1973053068 0.6633518338 0.07756977528
0.2208335549 0.6244986057 0.162804842
0.2324044704 0.6764842272 0.1124693602
0.2378989607 0.6839794517 0.0325553678
0.2078617066 0.6718632579 0.02755443752
0.1938966811 0.6650691032 0.02633289248
0.2516539693 0.6875542402 0.03266365826
0.2474301308 0.6869422197 0.03241679817
0.20408234 0.6602316499 0.1362443566
0.243164584 0.6856839061 0.0322118327
0.2607569993 0.6499135494 0.04335783422
0.2176865786 0.6763113141 0.02745160274
0.1968766898 0.666729629 0.02259573527
0.2473583668 0.6387441754 0.1424194574
0.2128447294 0.67415452 0.0275465101
0.2081274539 0.6208105087 0.1276214421
0.1872535944 0.6616637707 0.02235369384
0.2225018442 0.6783650517 0.02760812268
0.2152967751 0.6746302247 0.007634968963
0.2326581925 0.6786965728 0.0877726227
0.1939672679 0.6652756929 0.02229955047
0.1793404967 0.6297296286 0.01712204143
0.2175408006 0.626368165 0.06740085781
0.2280229032 0.6806090474 0.02735747211
0.2375696748 0.676083684 0.137276262
0.2226090431 0.647942543 0.1729764193
0.2077084184 0.6240257025 0.03255615383
0.2523751855 0.6832883358 0.1177130044
0.2026937306 0.6626542807 0.1124233976
0.2267636806 0.6293562055 0.1224733889
0.2362641096 0.6346094608 0.07259047776
0.2255119085 0.6796103716 0.02744064853
0.2038192898 0.6700485349 0.02286954597
0.2548533976 0.6839354634 0.02786014415
0.2077120095 0.6222161651 0.1718382835
0.2427172065 0.685788691 0.02781579643
0.2147176415 0.6750326157 0.0255799517
0.2077035904 0.6718661785 0.02247447893
0.1840682924 0.6601470113 0.01744682156
0.2181253135 0.6257880926 0.09267721325
0.2174708843 0.6728348732 0.08225223422
0.2603984475 0.673187077 0.02210657112
0.1888448596 0.6139198542 0.11759381
0.2177075893 0.6763989329 0.0226114057
0.2635398805 0.6455081701 0.1524107903
0.2598020732 0.6742571592 0.1236474589
0.2425602674 0.6368210316 0.1076375917
0.2451353222 0.6397945881 0.05724112689
0.2350844294 0.6748178005 0.1390999854
0.191452831 0.6641462445 0.01751559228
0.2280713618 0.6807729602 0.02252313122
0.1881652623 0.6196370125 0.01248642523
0.1940535605 0.6654601693 0.01755516976
0.177822113 0.6566955447 0.01254038978
0.217497021 0.6231799126 0.1707018018
0.2561483681 0.6815365553 0.1273772866
0.2399314344 0.6850172281 0.02562504634
0.2322684675 0.6824008226 0.02252373099
0.2039522678 0.6701053381 0.01741313562
0.2606324553 0.6726170778 0.01914213039
0.2521358132 0.6876638532 0.02247942984
0.2290575504 0.6303818822 0.1075291559
0.178816691 0.6331046224 0.09765319526
0.2580987811 0.6776691675 0.0178389959
0.1837678105 0.622539103 0.1424056143
0.2479838878 0.6876750588 0.02232442424
0.2228185236 0.6786530614 0.01757077314
0.1941498816 0.6654956937 0.01272829715
0.2537017763 0.6458315253 0.0377987586
0.2017132044 0.6689521074 0.01245384943
0.1974100471 0.6670137048 0.01246116683
0.2035957724 0.6206302643 0.07240828872
0.2029670924 0.6360610127 0.1726834029
0.2575836182 0.6426532865 0.1525868475
0.2555874288 0.6824781895 0.01714800671
0.2365179956 0.6841683984 0.01768063568
0.2124731839 0.6717665195 0.06762424111
0.204060182 0.6700502634 0.01326277852
0.2023573667 0.6688867807 0.007926856168
0.1958827376 0.654759109 0.1483634263
0.214813143 0.6751130819 0.0222176481
0.2226200402 0.6274572611 0.1126099899
0.1816711873 0.6591892838 0.007981739938
0.2521345317 0.6418243051 0.102601029
0.2524183393 0.6874640584 0.01724234968
0.2105673552 0.6645303369 0.128241837
0.1776096225 0.6368654966 0.1473783255
0.2161411643 0.624522686 0.1277320087
0.2423465699 0.6862092018 0.0175307449
0.2390234023 0.6850802302 0.01757635549
0.1972020417 0.6666550636 0.008234676905
0.2465984523 0.6395728588 0.08226939291
0.2172892988 0.6760414839 0.01291526761
0.1873528361 0.6621183753 0.007823193446
0.2419609874 0.6516085863 0.1724114418
0.2175848633 0.6265688539 0.06251421571
0.1942607164 0.665312767 0.007787993178
0.2326231152 0.6827346683 0.01250529382
0.2187143415 0.6257372499 0.1025275663
0.2558556795 0.682067275 0.01289890707
0.2368143499 0.6844111681 0.01254822221
0.1967851073 0.6142092943 0.1578253955
0.2521799803 0.6877884269 0.0127314385
0.2177103609 0.6758399606 0.008158642799
0.2004683167 0.664545238 0.08258001506
0.1789681464 0.6336749196 0.1474380344
0.2287661433 0.6808422208 0.007759153377
0.2423747629 0.6865552664 0.008045229129
0.2189448625 0.6656903625 0.1527435184
0.2393763065 0.6854370832 0.008234259672
0.24759233 0.683732152 0.08720847219
0.1891477257 0.6142193675 0.1074723229
0.2618393004 0.6484180689 0.07750214636
0.2020366341 0.6590326428 0.1379990578
0.2501157522 0.6890224814 0.009131067432
0.24303931 0.6554754376 0.1724465042
0.250321269 0.6579629183 0.1719224602
0.1764685661 0.6378710866 0.06217066571
0.2273710072 0.6484140158 0.1728762686
0.2328457981 0.6362034678 0.01241294574
0.2325996608 0.6483781934 0.1727083474
0.1787359864 0.6326640844 0.0324379243
0.2069539428 0.6593094468 0.1577828228
0.2370184064 0.6472935677 0.1725120842
0.2391380668 0.6502060294 0.1724955738
0.1926225126 0.6527818441 0.1525026858
0.2522799969 0.6534935236 0.1717972159
0.1790815294 0.6318457127 0.07761209458
0.202319324 0.6176503301 0.1713423878
0.212715894 0.6429475546 0.1729881167
0.1815656722 0.6271426082 0.1575437188
0.1925866008 0.6166245341 0.07745570689
0.2125759572 0.6227073669 0.1474787891
0.217437163 0.6434465647 0.1728812158
0.2221481055 0.6437928677 0.1728070527
0.2069057971 0.6641344428 0.1180127636
0.2476189882 0.6471951008 0.1720782667
0.228912428 0.6805204153 0.03777248412
0.2552039921 0.648774147 0.1717400402
0.2448595017 0.6404093504 0.04260320216
0.188550368 0.613687098 0.1275692433
0.2356681824 0.6348546743 0.05809536576
0.2126270831 0.6384734511 0.1727307588
0.2185180932 0.6255363226 0.1225595325
0.1741764992 0.6405185461 0.01745688915
0.2271604538 0.6373265386 0.1724085063
0.1871259063 0.630762279 0.172507301
0.2427329868 0.6423047185 0.17207627
0.2023657262 0.6181138158 0.1474305838
0.1927316636 0.6319875717 0.1725349575
0.2225560844 0.6762160659 0.06784899533
0.2076682299 0.632956326 0.1725450754
0.2425260395 0.6367085576 0.1225583553
0.262180984 0.6694713235 0.09275213629
0.2597005665 0.6744700074 0.102499783
0.2123508304 0.6325689554 0.1725002825
0.2477004379 0.6785098314 0.1626820862
0.2380461395 0.63707757 0.1718170643
0.2426964939 0.6372938156 0.1713595241
0.2621275187 0.6480690241 0.08739904314
0.1867614388 0.6166759133 0.1025629342
0.2470247597 0.6379265785 0.1709356904
0.181430921 0.631111145 0.1719139814
0.2326022834 0.632345438 0.1714081317
0.2371119559 0.6329078674 0.1708412021
0.1976466328 0.6166263819 0.1126331016
0.2324861288 0.6321023107 0.1023599207
0.2623254657 0.643520534 0.1674811542
0.1811257899 0.6276794076 0.07232366502
0.1850555539 0.6594284177 0.03779921308
0.1791099012 0.6326700449 0.1705340147
0.1929716915 0.6269661188 0.172314629
0.1837153584 0.6223853827 0.1675373465
0.232802406 0.6817570329 0.04231153429
0.1975273937 0.627035439 0.1722992808
0.2025566101 0.6161959767 0.1624339074
0.2071632147 0.6273303628 0.1722340137
0.1768752784 0.6373510361 0.09251408279
0.2122382224 0.6274808645 0.1722006947
0.1971938908 0.6131315827 0.1672738791
0.1841906309 0.6605377793 0.008551723324
0.2273013592 0.6280639768 0.1707857847
0.1966577172 0.6595128179 0.113109149
0.2138033956 0.6706104875 0.08797670156
0.2523962855 0.6388197541 0.1676919758
0.1786207706 0.6333319545 0.1675540507
0.1860106736 0.6543660164 0.107595928
0.2281249315 0.6318734884 0.1718208939
0.1927050799 0.6230412722 0.1721629202
0.2129215598 0.6225050688 0.1713365614
0.1787652671 0.6506522894 0.1026880443
0.1821258813 0.6576838493 0.03743017465
0.242184341 0.6339740157 0.1677492112
0.2550008595 0.6399611235 0.1683883518
0.242621243 0.6367574334 0.1274730563
0.2271517217 0.6777733564 0.07227090746
0.265272826 0.6449235082 0.1672813147
0.2276763618 0.6328775287 0.02249985747
0.1924814731 0.6122743487 0.1711532623
0.192543 0.6174136996 0.1719584763
0.1973381341 0.617829442 0.1718081385
0.254253 0.640571177 0.1574294418
0.2224752009 0.6283041835 0.07253465056
0.265442282 0.6452620625 0.1656134129
0.2073752135 0.6181875467 0.1707116663
0.223977983 0.6254289746 0.1671321243
0.2358258069 0.674783349 0.1427302063
0.2205608189 0.6245138645 0.1708102822
0.2265498191 0.6293449402 0.1273715496
0.197250247 0.6134762764 0.1708322167
0.2114093751 0.6194568872 0.1679662019
0.2526502311 0.641197741 0.1424152404
0.2476097196 0.687841773 0.01748223789
0.2174856365 0.6223354936 0.1674104184
0.2321432829 0.6424826384 0.172506243
0.257550478 0.6416655779 0.1626678407
0.265168786 0.6471742392 0.1425133049
0.2476253957 0.6873039007 0.02723553218
0.2619572282 0.6438391209 0.1624045819
0.2027377933 0.617644906 0.1527309865
0.2657387555 0.6457158327 0.162314713
0.2377036065 0.637170136 0.03253268823
0.2528989017 0.6809499264 0.1572781801
0.2007337362 0.6145314574 0.1681488156
0.203090623 0.6157622933 0.1673986614
0.2073600292 0.6176912785 0.1673495471
0.1789066792 0.6324043274 0.08263029158
0.1838564128 0.6556544304 0.07776492834
0.2122489512 0.6739509106 0.02269276977
0.252035439 0.6390495896 0.1624033898
0.2422395349 0.6736639142 0.1726970673
0.1886339039 0.6126455069 0.1675784737
0.1923897564 0.6111366153 0.1677897722
0.2416740954 0.6342278719 0.1624302566
0.2327182442 0.6321810484 0.1275015175
0.1776095033 0.6364874244 0.1328996569
0.2525332272 0.641576767 0.1225635484
0.2295739204 0.6700385809 0.1710674167
0.1801571846 0.6301981807 0.1622559726
0.2277130634 0.6276623607 0.1628062427
0.2574538291 0.6420949697 0.1575362086
0.2527327538 0.6415156722 0.1324471086
0.2335458547 0.6304746866 0.1620953381
0.2172965705 0.6229776144 0.1623494029
0.2233857512 0.6257273555 0.1622810364
0.2187004983 0.6254934072 0.1473083049
0.2642229199 0.6453623176 0.1577632129
0.207683444 0.6184926629 0.1624748409
0.2107694894 0.6197391748 0.1637143195
0.2627594173 0.6462028027 0.1374572963
0.2155747861 0.6648506522 0.1440970153
0.2515255511 0.6392324567 0.1576621532
0.1971555352 0.6217380762 0.008058247156
0.217551887 0.6660757065 0.1423108578
0.1860543787 0.6173959374 0.1622282863
0.218434155 0.6256067753 0.1421413124
0.2006551027 0.6597447991 0.1286522448
0.18828547 0.6131669283 0.1625778079
0.1789630055 0.6475561261 0.1420425773
0.1919388771 0.6636745334 0.03261481598
0.197149232 0.6137648821 0.1625545919
0.2325571179 0.6310597658 0.1525933444
0.2438704669 0.6356999278 0.1573030353
0.2473563999 0.6372814178 0.1575110108
0.2471083999 0.6431751847 0.01759736426
0.255995661 0.6812181473 0.1576907486
0.1941526383 0.615408361 0.1071878523
0.2651107311 0.6459168792 0.1563786119
0.1811807305 0.627809763 0.06249777973
0.2226625532 0.6266586781 0.1525500119
0.232641682 0.6334450245 0.05732743815
0.2195542306 0.6253267527 0.1521282494
0.1789039671 0.6334046721 0.1575220525
0.2074622214 0.6227806807 0.05743166059
0.2374896258 0.6327621341 0.1574436873
0.177466318 0.6368324161 0.1564493924
0.2374231666 0.6833195686 0.04278213531
0.1802414507 0.6302418113 0.1575367004
0.2195135951 0.6753354669 0.06193058565
0.2274418324 0.6282519698 0.1573587805
0.1849596798 0.6193981171 0.1477514505
