ply
format ascii 1.0
comment Created by Open3D
element vertex 780
property double x
property double y
property double z
end_header
0.0611936 0.720769 0.00894221
0.0726537 0.722776 0.00910253
0.0634204 0.71902 0.0124307
0.0585518 0.722955 0.0121109
0.044184 0.734965 0.00906258
0.0420028 0.736817 0.00897324
0.0388474 0.739478 0.00901181
0.0361542 0.741766 0.00898123
0.067462 0.717104 0.0174613
0.0704271 0.719853 0.01752
0.0473856 0.732219 0.012494
0.0334412 0.744094 0.00893904
0.0309884 0.746164 0.00924461
0.0264282 0.750116 0.00830222
0.0749059 0.725511 0.0178699
0.0678003 0.717337 0.0224982
0.0639417 0.718762 0.02233
0.0362625 0.741557 0.0122666
0.0524181 0.72802 0.012754
0.047384 0.732165 0.0174343
0.0575173 0.723858 0.0224563
0.0419136 0.736736 0.0175296
0.036789 0.740984 0.0172813
0.079605 0.731048 0.0224227
0.0723856 0.722397 0.0125359
0.0680723 0.717389 0.0274983
0.0449042 0.734225 0.0218156
0.0612373 0.720934 0.0276042
0.0476814 0.731905 0.0225309
0.0766704 0.727664 0.00885465
0.0308331 0.74594 0.0177513
0.028134 0.748245 0.0171169
0.0551293 0.72578 0.0279601
0.0391847 0.738975 0.0226482
0.0312432 0.745783 0.0129158
0.0524118 0.727988 0.0272978
0.0370041 0.740774 0.0226153
0.0226171 0.752847 0.017768
0.0195566 0.755497 0.0174094
0.0678999 0.717504 0.0325449
0.0473554 0.732144 0.0274462
0.0724826 0.722335 0.0324857
0.0281568 0.748202 0.0224246
0.0259167 0.750096 0.0223709
0.0553677 0.725582 0.0327656
0.038859 0.739215 0.0276678
0.02521 0.750955 0.0121942
0.0230732 0.752518 0.0225317
0.0799324 0.731119 0.0326115
0.0770875 0.727818 0.0325579
0.0674277 0.717465 0.0373069
0.023434 0.752659 0.00866285
0.0525646 0.727849 0.0325454
0.0332006 0.74397 0.0271724
0.07922 0.730629 0.0095207
0.0419177 0.736717 0.0224563
0.0200433 0.755098 0.0246012
0.0700679 0.719227 0.0392769
0.0616683 0.720652 0.037102
0.0475798 0.731941 0.0324703
0.0771686 0.728176 0.0174435
0.0728027 0.722623 0.0374642
0.0499625 0.729958 0.0364462
0.0419228 0.736632 0.0324949
0.0275846 0.748664 0.0273914
0.0389478 0.739092 0.0326123
0.0362345 0.741374 0.0323149
0.0225128 0.752941 0.0275377
0.0701863 0.719293 0.0425698
0.0673173 0.717269 0.0426868
0.041692 0.736992 0.012902
0.0525101 0.727894 0.0378156
0.0443486 0.73458 0.037367
0.0281924 0.748118 0.0323621
0.0729445 0.722668 0.042604
0.0773353 0.727971 0.0376015
0.0558314 0.725258 0.0422793
0.041514 0.736932 0.0378245
0.0773031 0.727787 0.0424312
0.0364536 0.741139 0.0375832
0.0703455 0.719436 0.0471447
0.067502 0.717376 0.0476413
0.0635735 0.719276 0.047205
0.0313266 0.745457 0.0373161
0.0282564 0.748534 0.0086791
0.0608862 0.72134 0.0477484
0.0446595 0.734292 0.0428817
0.0282622 0.748018 0.0375372
0.0579768 0.723596 0.0475646
0.0417959 0.736661 0.0426685
0.0525815 0.727845 0.047483
0.0448901 0.734086 0.0469942
0.0366728 0.7409 0.0428263
0.0339538 0.743214 0.0425484
0.0194528 0.755474 0.0376976
0.0705232 0.719629 0.0523403
0.067817 0.717328 0.0523623
0.0638137 0.7191 0.0525357
0.0474013 0.732026 0.0477558
0.0191997 0.756078 0.0129305
0.0257191 0.750111 0.0417533
0.057816 0.723734 0.0523233
0.0276876 0.748448 0.0427586
0.0439163 0.734992 0.0297273
0.0550645 0.725891 0.0546562
0.0385164 0.73933 0.047756
0.03668 0.740872 0.0471916
0.022636 0.752721 0.0424431
0.0523769 0.728006 0.0425707
0.0192046 0.755652 0.0427495
0.0794315 0.73004 0.0524846
0.0771858 0.727422 0.0525553
0.033289 0.743729 0.0473176
0.030506 0.746055 0.0473362
0.0706995 0.719825 0.0575112
0.0639499 0.718953 0.057547
0.0614385 0.720881 0.0574096
0.0472656 0.73212 0.0525724
0.0310129 0.745756 0.0323914
0.0438363 0.734916 0.0533847
0.0728987 0.722382 0.0574607
0.0579453 0.723599 0.0574587
0.0525778 0.727819 0.0574402
0.0224283 0.752869 0.047423
0.01861 0.756133 0.04712
0.0795976 0.730145 0.0577505
0.0677769 0.717452 0.0625153
0.0641629 0.718795 0.062258
0.0476427 0.731764 0.0576608
0.0420339 0.736343 0.0571629
0.0727388 0.722131 0.0626647
0.0580703 0.723495 0.0625576
0.0554382 0.725555 0.0620096
0.0499111 0.729936 0.0617852
0.0390933 0.738778 0.0573512
0.022547 0.752746 0.0523791
0.0361328 0.741241 0.0575368
0.033433 0.743521 0.0573131
0.0190102 0.755748 0.052741
0.063243 0.719101 0.00829789
0.0797634 0.730243 0.0629939
0.0700088 0.718895 0.0688886
0.0675174 0.717595 0.0672985
0.0311778 0.745401 0.0577125
0.0618103 0.720663 0.0676288
0.044378 0.734414 0.0628643
0.0723389 0.722305 0.0226037
0.0282422 0.747869 0.0575284
0.0252879 0.750366 0.0573372
0.0443875 0.734742 0.0126283
0.0726965 0.721988 0.0674949
0.0386871 0.739119 0.0625649
0.0500443 0.73 0.0111715
0.0222053 0.752981 0.057604
0.0771571 0.727112 0.0675305
0.0521402 0.728194 0.0675069
0.0336537 0.743307 0.0624593
0.0255696 0.750094 0.0614839
0.0640122 0.719086 0.0720472
0.0473002 0.732071 0.0674446
0.0446359 0.734235 0.0675448
0.0307872 0.74571 0.0629775
0.0204272 0.755204 0.00902969
0.0616404 0.720919 0.0729721
0.0418073 0.736564 0.0674135
0.0768374 0.727674 0.0274894
0.0276994 0.748303 0.0626323
0.0582498 0.723285 0.0325142
0.072881 0.72206 0.072651
0.0559427 0.725315 0.0725222
0.0387361 0.739107 0.0682738
0.0367074 0.740764 0.0670342
0.0799937 0.730345 0.0701754
0.0226897 0.752548 0.0626747
0.0634462 0.719345 0.042171
0.0193583 0.755413 0.0576319
0.0800787 0.730365 0.0727799
0.052472 0.728041 0.0724294
0.0332466 0.743697 0.0676626
0.0222268 0.753147 0.0323312
0.030671 0.745841 0.0669445
0.0611293 0.721376 0.0774962
0.0226866 0.75258 0.0677413
0.0472919 0.732042 0.0625475
0.0199375 0.754916 0.0659318
0.0384685 0.739375 0.0727871
0.0361455 0.74132 0.0728256
0.0774228 0.727133 0.0775744
0.0527601 0.727951 0.0774779
0.0338853 0.743387 0.0176921
0.0389502 0.739069 0.037009
0.0799095 0.730314 0.0675673
0.0333761 0.743643 0.0721952
0.067654 0.71762 0.0827795
0.0638186 0.719129 0.0675139
0.0471988 0.732389 0.0774974
0.0693315 0.719808 0.0852553
0.058405 0.723709 0.0820815
0.0225807 0.752812 0.0374952
0.0423647 0.736291 0.0775764
0.057884 0.723575 0.0274976
0.0389293 0.739094 0.0773863
0.0224538 0.752849 0.0725223
0.0419648 0.736494 0.0725258
0.0188868 0.755865 0.0723524
0.0773248 0.727495 0.0821472
0.0743373 0.72594 0.0841458
0.0561866 0.725241 0.0777215
0.0672254 0.722407 0.0852748
0.0186049 0.756067 0.0682492
0.0633324 0.724427 0.0850555
0.0617343 0.721813 0.0833353
0.0601761 0.725214 0.0848045
0.0564051 0.726506 0.0835764
0.0331133 0.743982 0.0775041
0.067616 0.727864 0.0859815
0.063347 0.728053 0.0856152
0.0476969 0.732731 0.0825616
0.028049 0.748217 0.0774729
0.0251687 0.750636 0.0780307
0.0559787 0.72505 0.0166969
0.0653897 0.733716 0.085981
0.0638733 0.719347 0.0819439
0.0574495 0.732846 0.0856085
0.0820397 0.739834 0.0414527
0.0317501 0.781035 0.0772432
0.0308182 0.745762 0.052188
0.0674506 0.742632 0.0859679
0.0634465 0.743628 0.0860898
0.0765075 0.741626 0.0850874
0.0433699 0.773417 0.0273206
0.0793208 0.730749 0.012925
0.076953 0.726981 0.0624928
0.0724532 0.742027 0.0855846
0.0805489 0.740584 0.0817568
0.0193955 0.769328 0.0743536
0.0771883 0.743147 0.0826157
0.0593408 0.759561 0.037746
0.0569127 0.761485 0.0375676
0.0308125 0.745837 0.0423549
0.0678851 0.717409 0.0574086
0.0774861 0.74338 0.0775677
0.0235063 0.772193 0.0321994
0.0713894 0.745464 0.085269
0.0708914 0.750177 0.047052
0.0675364 0.747582 0.0855018
0.0725614 0.748041 0.0675032
0.0626962 0.747937 0.0859528
0.0655591 0.720866 0.084916
0.0226847 0.772039 0.0523565
0.0720911 0.747249 0.0826059
0.0358504 0.741742 0.0277528
0.0623763 0.75184 0.0855568
0.056688 0.761326 0.062266
0.0586803 0.759303 0.00792883
0.0198904 0.768689 0.021252
0.0418192 0.736588 0.0522805
0.0731127 0.748377 0.0374075
0.0667999 0.751489 0.0826823
0.0806435 0.740656 0.0773556
0.0440729 0.734849 0.0325097
0.0701281 0.718939 0.0720972
0.0750567 0.745113 0.0810204
0.0330461 0.781049 0.00858475
0.0198416 0.754997 0.0645542
0.0635154 0.754099 0.0826233
0.033977 0.743314 0.0226857
0.0572066 0.756917 0.0854395
0.0706837 0.722339 0.0852962
0.0293955 0.769803 0.0859861
0.0701348 0.719518 0.00880076
0.0483745 0.76788 0.00837694
0.0389166 0.739045 0.0424519
0.0373397 0.777835 0.00843864
0.0675154 0.717098 0.0123961
0.0821332 0.739426 0.077172
0.0373192 0.778291 0.0573459
0.0488059 0.76862 0.0473325
0.0610549 0.756162 0.0826987
0.0580339 0.758449 0.0827519
0.0591963 0.728386 0.0850805
0.0539056 0.764011 0.0477223
0.0515198 0.761531 0.0854702
0.0478567 0.762142 0.085778
0.0334415 0.781262 0.0426943
0.0770734 0.727213 0.0576972
0.0352289 0.780196 0.0225664
0.0727483 0.72284 0.0174384
0.0728742 0.747205 0.0774251
0.0555118 0.760581 0.0821501
0.0247673 0.775533 0.0727624
0.0517233 0.731962 0.0847239
0.0524145 0.763127 0.0828958
0.0560639 0.72508 0.0470082
0.0484153 0.768299 0.0173886
0.0298913 0.78021 0.0568246
0.0422895 0.767197 0.0855968
0.0274141 0.777658 0.0574804
0.0273983 0.777841 0.00925938
0.0419331 0.746852 0.085815
0.0593253 0.759388 0.0275603
0.0330344 0.768399 0.0859579
0.0819832 0.739615 0.072453
0.064431 0.754043 0.0775717
0.0611044 0.720993 0.0224676
0.02505 0.750606 0.0538647
0.0292433 0.78065 0.0776203
0.0772907 0.727117 0.0725662
0.029232 0.780501 0.0726442
0.0705392 0.71998 0.0208583
0.0807864 0.740707 0.0674557
0.022379 0.75336 0.0127643
0.0809403 0.740525 0.0721933
0.0780921 0.743033 0.0727229
0.0618219 0.756129 0.0776087
0.0444617 0.769656 0.0839384
0.0359106 0.741497 0.0523613
0.0422153 0.772056 0.0824553
0.041197 0.770494 0.0851042
0.0333399 0.744021 0.012643
0.0373654 0.772172 0.0853016
0.0187666 0.756057 0.0277293
0.0401085 0.7753 0.0079658
0.0556982 0.725384 0.0672975
0.0727048 0.748609 0.0274462
0.0326864 0.773408 0.0856194
0.0797805 0.731081 0.0278703
0.0247214 0.770763 0.0852039
0.0624354 0.757019 0.0525783
0.0760726 0.745714 0.0423467
0.0727709 0.747618 0.0724726
0.0366317 0.740785 0.0622772
0.0279437 0.776606 0.0374216
0.0640654 0.718721 0.0274466
0.0503483 0.765278 0.0814463
0.0672462 0.753137 0.0324355
0.058389 0.72307 0.00863194
0.0391983 0.774109 0.0835329
0.0219723 0.772304 0.0722538
0.025975 0.773893 0.0844778
0.0377304 0.747474 0.0852962
0.0394308 0.739236 0.0819032
0.0276092 0.7485 0.0725506
0.0227895 0.772359 0.0827442
0.0420269 0.750751 0.0859362
0.0513445 0.766324 0.0475448
0.0610731 0.721168 0.0429113
0.0809469 0.741482 0.022178
0.0531441 0.763222 0.0776587
0.0371231 0.776964 0.0773703
0.0368335 0.7765 0.0824042
0.0336463 0.778801 0.0832044
0.0525097 0.727865 0.0626617
0.0582949 0.723578 0.0772575
0.0314713 0.777383 0.0851827
0.0255927 0.750365 0.0173605
0.0306978 0.746054 0.0274403
0.0757936 0.745107 0.0715243
0.0282362 0.748357 0.0125578
0.0344254 0.779407 0.072333
0.0697775 0.749996 0.0739626
0.0505655 0.765606 0.0771027
0.0802266 0.730404 0.0773218
0.0265562 0.777617 0.077574
0.0460034 0.771087 0.0521446
0.0758622 0.745957 0.0273461
0.0269656 0.777582 0.0824442
0.0485405 0.768647 0.0574219
0.0200296 0.769952 0.0814803
0.0673764 0.752971 0.0525785
0.0330055 0.781203 0.0322877
0.081809 0.739787 0.0671045
0.0643969 0.754437 0.0730882
0.0252441 0.773905 0.0369806
0.0621528 0.75631 0.07231
0.0476039 0.73187 0.042632
0.0475256 0.768237 0.0776759
0.039869 0.774652 0.078134
0.0198489 0.755258 0.0217305
0.0528699 0.728544 0.0824548
0.0271119 0.776824 0.0227962
0.0315703 0.781029 0.0822826
0.064054 0.718759 0.0323481
0.019466 0.755578 0.081137
0.0327532 0.781561 0.0226309
0.0673841 0.752644 0.0625175
0.0416453 0.736659 0.0622676
0.0192077 0.755664 0.0771058
0.0610242 0.721236 0.0527803
0.0561394 0.761549 0.0124521
0.0512188 0.766079 0.0275397
0.0363292 0.755193 0.0859053
0.0224492 0.772874 0.0774483
0.0623558 0.757136 0.037401
0.0196758 0.769657 0.0773567
0.0616502 0.720618 0.0323383
0.0379473 0.778237 0.0526033
0.053449 0.763413 0.0726369
0.0332155 0.74391 0.0324135
0.0483923 0.768547 0.0626499
0.0426265 0.736992 0.0827553
0.0732815 0.722897 0.0524518
0.0676023 0.752192 0.0675867
0.0454467 0.770178 0.0764092
0.0329206 0.743998 0.0525275
0.0527909 0.758213 0.0859084
0.0316746 0.746797 0.08358
0.0645409 0.754707 0.0674883
0.0507563 0.765867 0.0724274
0.07271 0.74847 0.0525899
0.0479888 0.768316 0.0726109
0.0338837 0.779502 0.0779827
0.0619615 0.75679 0.0675389
0.0562449 0.761018 0.0725519
0.0460262 0.771158 0.047419
0.0740384 0.744517 0.0849325
0.0729295 0.747968 0.0626014
0.0590708 0.759136 0.0674546
0.0584513 0.747756 0.0860831
0.0410007 0.775622 0.0520858
0.0475623 0.767467 0.0825033
0.0704225 0.750113 0.0627077
0.0582334 0.723332 0.0374948
0.0350342 0.780347 0.0190248
0.078648 0.743443 0.0324565
0.0809797 0.74083 0.00853306
0.0382552 0.778529 0.0424114
0.0536822 0.763572 0.067447
0.0376943 0.776891 0.0726789
0.0782543 0.74303 0.0676016
0.0271561 0.778238 0.0722356
0.0559796 0.760792 0.0774475
0.0674501 0.752469 0.0127205
0.0641113 0.754931 0.00774904
0.0440757 0.734657 0.0574739
0.0309567 0.745785 0.0775866
0.0622197 0.756859 0.0624144
0.0306321 0.745955 0.0722322
0.0223704 0.772651 0.0675858
0.0557708 0.725244 0.0125041
0.0574299 0.752405 0.0859917
0.0728228 0.748242 0.0576165
0.037463 0.777866 0.0624652
0.0455647 0.770791 0.0674154
0.0615737 0.720781 0.0623892
0.0702414 0.750464 0.0574502
0.0535621 0.763936 0.0625392
0.0725318 0.722511 0.0274791
0.0375153 0.777433 0.0675478
0.0277021 0.748404 0.0473509
0.0276406 0.778033 0.012411
0.0244801 0.775128 0.0697328
0.0807672 0.74086 0.052614
0.0671553 0.753013 0.0575124
0.0750125 0.745326 0.0793256
0.0196519 0.768211 0.0349849
0.0511237 0.766121 0.062352
0.0781658 0.743383 0.0525244
0.0747323 0.725342 0.0124628
0.0483087 0.768917 0.0325241
0.0622227 0.757039 0.057502
0.0511206 0.76599 0.0224098
0.0726335 0.738258 0.0858753
0.0230358 0.771791 0.0423854
0.0296338 0.780756 0.0674175
0.0513887 0.766177 0.0374776
0.0199021 0.769734 0.0652473
0.0756863 0.745802 0.0525295
0.0205421 0.755028 0.0105228
0.0584453 0.7232 0.0422671
0.0591848 0.759502 0.0575464
0.0552046 0.72574 0.0573468
0.0589798 0.759456 0.0631166
0.0461503 0.770537 0.0218764
0.0456619 0.770373 0.008764
0.0809919 0.740628 0.0577396
0.0224064 0.772473 0.0626789
0.0276649 0.776787 0.0474852
0.0435487 0.773526 0.0424661
0.0196901 0.768552 0.0187386
0.0527796 0.727695 0.0523927
0.0197086 0.769426 0.0633737
0.0462855 0.770963 0.0424795
0.056596 0.761583 0.0574792
0.0702477 0.719645 0.0121621
0.0277693 0.748323 0.0524485
0.0780608 0.743354 0.0624515
0.0370735 0.741706 0.0829768
0.0806687 0.741079 0.0475273
0.0203292 0.769768 0.0559026
0.0703042 0.750552 0.0520591
0.0256768 0.774418 0.041974
0.0626901 0.756894 0.0475628
0.0403615 0.775295 0.0669199
0.0537688 0.763952 0.0576022
0.027659 0.753492 0.0850988
0.0514227 0.76605 0.0575179
0.0269913 0.777914 0.0675993
0.0404649 0.775551 0.0620131
0.020782 0.769712 0.0470158
0.0270037 0.77764 0.0625098
0.0780879 0.743595 0.0475501
0.0472001 0.732227 0.0375955
0.0191064 0.755787 0.0327186
0.0344958 0.77985 0.063027
0.0322521 0.781065 0.0624453
0.0478678 0.731871 0.00879329
0.0756094 0.745982 0.0479908
0.0472393 0.75738 0.0860398
0.0201268 0.76942 0.0539893
0.0638104 0.719302 0.0775432
0.0704747 0.719358 0.0822139
0.0809651 0.740636 0.0621941
0.0460832 0.77081 0.0575128
0.0813225 0.740736 0.0371406
0.0635037 0.719252 0.0379365
0.0564416 0.761134 0.00829837
0.0288613 0.776666 0.0855168
0.0731115 0.748257 0.0474149
0.035991 0.741559 0.0776235
0.0649821 0.75498 0.0520898
0.0272885 0.776637 0.0274719
0.0756658 0.745403 0.0674534
0.0754942 0.745732 0.0621792
0.0643133 0.754973 0.0121682
0.0567296 0.761603 0.052546
0.0673754 0.751674 0.0775375
0.0591398 0.759394 0.0223657
0.0373228 0.768012 0.0858334
0.0249238 0.775181 0.0605062
0.0555658 0.725414 0.00830593
0.0807517 0.741166 0.0428105
0.0678495 0.752709 0.0475146
0.0322796 0.75239 0.0854354
0.0428532 0.743026 0.0852499
0.0568556 0.761333 0.0275737
0.079466 0.730872 0.017695
0.0525017 0.727917 0.0175511
0.0537704 0.764095 0.0524347
0.078304 0.743582 0.0425123
0.0223144 0.753042 0.0774911
0.0510596 0.766532 0.0525372
0.0732962 0.748171 0.0425383
0.063544 0.718995 0.0175911
0.0432162 0.773356 0.0575492
0.0482541 0.769046 0.0526499
0.0668391 0.717013 0.00875358
0.0200193 0.769888 0.0664724
0.0317037 0.781127 0.0726325
0.0325083 0.781119 0.0576168
0.0571701 0.761324 0.0474059
0.0433237 0.773487 0.0527074
0.0730828 0.722741 0.0477091
0.0776167 0.728042 0.0474103
0.044888 0.734087 0.0721919
0.070714 0.750371 0.0422577
0.0676572 0.752882 0.0426072
0.0512261 0.765788 0.0674183
0.0437101 0.773344 0.0375217
0.0563768 0.761504 0.0173942
0.0284263 0.748282 0.0822613
0.0198466 0.768913 0.0514116
0.0205944 0.769721 0.0125519
0.0530512 0.72751 0.00892065
0.0431818 0.773791 0.047388
0.0626175 0.756957 0.0424484
0.0674186 0.752952 0.0277425
0.0352608 0.780317 0.0528041
0.0781283 0.74381 0.0173603
0.0644192 0.754992 0.0640452
0.025303 0.774731 0.0515558
0.0694134 0.7492 0.0830862
0.0360663 0.780608 0.0471776
0.0624253 0.756926 0.0273841
0.0195397 0.768476 0.0482606
0.0484864 0.768862 0.0374848
0.0676693 0.752502 0.0177517
0.0812623 0.740932 0.0325984
0.0312225 0.745625 0.0223575
0.0705334 0.750548 0.0374339
0.054119 0.763795 0.0423684
0.0276964 0.77662 0.0323984
0.042807 0.762138 0.0859733
0.0283651 0.777106 0.0423919
0.0230407 0.771668 0.03749
0.0255446 0.774644 0.0473978
0.0456368 0.771264 0.0275998
0.0758301 0.745794 0.0179911
0.0378337 0.778498 0.0323524
0.0409065 0.775938 0.0473783
0.0383155 0.778344 0.0477128
0.0788138 0.743228 0.0375377
0.0759857 0.745834 0.0325458
0.043038 0.77271 0.00829642
0.0487283 0.768686 0.042397
0.0254327 0.7504 0.0375191
0.038495 0.763605 0.0859963
0.072928 0.748482 0.0325163
0.0327939 0.781126 0.0522671
0.0292476 0.780202 0.0631735
0.0331153 0.780821 0.0471887
0.0202968 0.769031 0.0419518
0.0811668 0.741179 0.0274225
0.0309452 0.779594 0.041939
0.0427007 0.772408 0.0773937
0.0677645 0.752552 0.022627
0.0758473 0.745573 0.0572888
0.0703376 0.750616 0.0325394
0.0762254 0.745615 0.0377464
0.0410707 0.775727 0.0324415
0.0784823 0.743665 0.0273548
0.0407582 0.776215 0.0423063
0.0208869 0.769491 0.0373694
0.0277724 0.772586 0.0858798
0.0424277 0.773106 0.0724831
0.0621369 0.757225 0.0324328
0.0461766 0.766117 0.0853138
0.0591224 0.759665 0.0329231
0.0460877 0.771099 0.0374981
0.058433 0.723255 0.0675982
0.0364144 0.745589 0.0848919
0.0446729 0.73442 0.0176045
0.0360254 0.780749 0.0424621
0.0516282 0.766029 0.0424189
0.0701474 0.750734 0.0276434
0.0565929 0.76166 0.0326089
0.0198277 0.768433 0.0368905
0.0729471 0.722027 0.0776237
0.0411654 0.775772 0.0375951
0.0457056 0.770568 0.012356
0.0783154 0.743819 0.0224073
0.0537474 0.763968 0.0322411
0.0388846 0.739 0.0522016
0.047207 0.741799 0.0856297
0.0672717 0.717387 0.0726261
0.0674777 0.717387 0.077753
0.0413987 0.741395 0.0848839
0.0583489 0.723434 0.0723663
0.030217 0.779415 0.0477364
0.0383943 0.77833 0.0372224
0.0458796 0.771184 0.032467
0.0334422 0.743677 0.0376956
0.0422166 0.736288 0.047708
0.0756822 0.746055 0.0223863
0.0331536 0.781513 0.0375039
0.0306105 0.779468 0.0371528
0.0800821 0.731172 0.0373257
0.0819889 0.739963 0.0396481
0.0508745 0.765636 0.0080441
0.0484186 0.768261 0.0675634
0.0334368 0.744187 0.0823277
0.0208009 0.769372 0.0325012
0.0750737 0.724933 0.0563209
0.0406855 0.775499 0.0172416
0.0322487 0.78107 0.0674125
0.070025 0.750786 0.024562
0.0434478 0.773479 0.0325949
0.0807744 0.741541 0.0171473
0.0703148 0.719041 0.0772026
0.0476902 0.731843 0.072504
0.0538465 0.763772 0.0274817
0.0708321 0.719964 0.0613774
0.0512173 0.766223 0.0324959
0.0647525 0.754933 0.0221322
0.0233969 0.772438 0.0472916
0.0649423 0.754909 0.0264565
0.072858 0.748259 0.0171316
0.059382 0.759485 0.0519174
0.0483589 0.768707 0.0274724
0.0585013 0.758736 0.0777637
0.0325619 0.781165 0.0276041
0.0423332 0.736326 0.0271466
0.020395 0.769057 0.0275149
0.0723466 0.72609 0.0858077
0.0375593 0.751049 0.0858452
0.0565377 0.761472 0.0224904
0.0231328 0.77199 0.0272802
0.0781113 0.743585 0.01229
0.0802113 0.731204 0.0413567
0.0708007 0.750008 0.0179544
0.0698832 0.749653 0.0773746
0.045551 0.770496 0.0720073
0.0263626 0.751144 0.0836699
0.053609 0.763848 0.0226201
0.0408496 0.775819 0.0274159
0.0784099 0.743095 0.0575076
0.0758359 0.745583 0.0127098
0.0622764 0.756815 0.017635
0.035935 0.780003 0.0344342
0.0484941 0.768386 0.0226944
0.0388974 0.739223 0.0177042
0.0374931 0.778581 0.0275673
0.072609 0.74827 0.0124447
0.0542383 0.733752 0.0853238
0.0227075 0.772495 0.0576743
0.0589168 0.759483 0.0174575
0.0574832 0.737819 0.0859966
0.0610252 0.720956 0.0129662
0.020095 0.768847 0.0237683
0.0644808 0.754973 0.0159254
0.059579 0.75941 0.047706
0.0277358 0.777466 0.0527374
0.0433711 0.773186 0.0224983
0.0227634 0.771815 0.0223458
0.0783115 0.743176 0.00838036
0.0532869 0.764014 0.01754
0.0431041 0.77325 0.0176614
0.0756785 0.745483 0.00885269
0.0620241 0.732543 0.085919
0.072419 0.748192 0.00834718
0.0251478 0.750675 0.0332715
0.062044 0.756833 0.0125141
0.0405845 0.775854 0.022529
0.0817004 0.739972 0.0635515
0.037778 0.778238 0.0224659
0.0746221 0.725248 0.00906654
0.0586825 0.759506 0.0124932
0.0196506 0.755152 0.0617946
0.0377841 0.778058 0.0175098
0.0725406 0.748674 0.0223415
0.0672558 0.752429 0.00829093
0.0299611 0.780266 0.0250052
0.0595531 0.759425 0.0425315
0.037511 0.777982 0.0123842
0.0771169 0.728152 0.0124568
0.045975 0.770551 0.0172585
0.0406047 0.775631 0.0581739
0.0403851 0.775428 0.0123236
0.0275662 0.748444 0.0675937
0.0199352 0.769897 0.0803157
0.0297212 0.780058 0.0218976
0.0431365 0.773185 0.062667
0.0254319 0.774959 0.0206249
0.0292515 0.755732 0.0857416
0.0226895 0.771933 0.0176903
0.0730214 0.722763 0.0824686
0.0481521 0.768315 0.0124724
0.0295987 0.780707 0.0827224
0.0531118 0.764019 0.012419
0.0609737 0.721031 0.0173147
0.0768711 0.727835 0.0225978
0.0566761 0.761051 0.0674541
0.0616973 0.756908 0.00826367
0.0508781 0.766082 0.0175427
0.0506221 0.766101 0.0126162
0.0525144 0.753728 0.0860782
0.0588262 0.758958 0.0725001
0.0806101 0.74148 0.0126724
0.0280047 0.778239 0.0173795
0.0251656 0.774859 0.0169263
0.0208485 0.769912 0.0157209
0.0578786 0.723528 0.0175623
0.0427273 0.773316 0.0126028
0.0461326 0.77055 0.0622771
0.0304733 0.779922 0.0338019
0.0538253 0.763992 0.0373005
0.0328045 0.781524 0.0175529
0.0556009 0.725414 0.0375368
0.0234058 0.772986 0.0123314
0.0356958 0.780579 0.037664
0.0533858 0.763586 0.00795578
0.0391349 0.739139 0.0120396
0.0427199 0.773247 0.0676414
0.0570851 0.761385 0.042642
0.0326393 0.781463 0.0125444
0.0674123 0.753096 0.0375496
0.0675656 0.751909 0.072441
0.0224659 0.771984 0.00936905
0.0323283 0.756447 0.0858578
0.0226084 0.753117 0.0822984
0.0333585 0.749291 0.0850655
0.0345391 0.779549 0.0678429
0.0470216 0.746431 0.0859444
0.0622058 0.75698 0.0224699
0.0519665 0.742123 0.0859636
0.0693817 0.737486 0.086
0.0491126 0.738306 0.0854123
0.0527473 0.727726 0.0224146
0.052383 0.73733 0.0855927
0.0460807 0.736734 0.0847122
