# .PCD v0.7 - Point Cloud Data file format
VERSION 0.7
FIELDS x y z
SIZE 4 4 4
TYPE F F F
COUNT 1 1 1
WIDTH 1175
HEIGHT 1
VIEWPOINT 0 0 0 1 0 0 0
POINTS 1175
DATA ascii
0.06078185886 0.7530337572 0.08563444763
0.05973786861 0.7533689141 0.08575481176
0.05867964774 0.7536031604 0.08583891392
0.05763175339 0.7538985014 0.08594497293
0.05657605827 0.7541371584 0.08603066951
0.05550697446 0.7542859316 0.08608409017
0.05441746861 0.7543039918 0.08609057218
0.05332451314 0.7543004155 0.08608928323
0.05223039538 0.7542898059 0.08608547598
0.05113269389 0.7542577982 0.08607399464
0.05003478378 0.7542253137 0.08606233448
0.08117642254 0.7401207089 0.07980845124
0.08015593141 0.7409803867 0.08011882007
0.07913704216 0.7418267727 0.08042439818
0.07811813802 0.7426467538 0.080720447
0.07710129768 0.7434588671 0.08101365715
0.07608517259 0.7442524433 0.08130016923
0.07507219911 0.7450479269 0.08158736676
0.07406445593 0.7458617687 0.08188120276
0.07305426896 0.7466331124 0.08215968311
0.07204148918 0.7473624349 0.08242301643
0.07103721052 0.7481362224 0.0827023834
0.07003552467 0.7489081025 0.08298106492
0.06903704256 0.7496827841 0.08326075226
0.06804034114 0.7504496574 0.08353763074
0.06705195457 0.7512562871 0.08382885158
0.06605412811 0.7519745231 0.08408816159
0.06505454332 0.7526618838 0.08433634043
0.06404663622 0.7532739639 0.08455730975
0.06303302199 0.7538315058 0.08475860208
0.06201735884 0.7543613315 0.08494990319
0.0609991774 0.7548612952 0.08513040841
0.05997287482 0.7552955151 0.08528717607
0.05892869085 0.7556026578 0.08539805561
0.05789476633 0.7559686899 0.08553021401
0.05686957389 0.7563817501 0.08567934483
0.05584808439 0.7568086386 0.08583348244
0.05481300503 0.7571411133 0.0859535113
0.05376134813 0.7573640347 0.08603399247
0.05268859863 0.7574535012 0.08606629074
0.05160303414 0.7574638128 0.08607001603
0.05052001774 0.7574890852 0.08607915044
0.04942662269 0.7574526668 0.08606599271
0.04833310097 0.7574162483 0.08605285734
0.04723959416 0.757380724 0.08604001999
0.04614511877 0.7573404312 0.08602546901
0.04505231231 0.7573103905 0.08601462096
0.08217026293 0.7393759489 0.07834757864
0.08114201576 0.7401987314 0.07864623517
0.08011815697 0.7410334349 0.07894922793
0.07910446823 0.7419290543 0.07927432656
0.07808806747 0.7427740097 0.07958103716
0.07707080245 0.7435859442 0.07987577468
0.07605488598 0.7443845272 0.08016566187
0.07504115254 0.7451770902 0.08045334369
0.0740307048 0.7459725738 0.08074211329
0.07302127033 0.7467531562 0.08102545887
0.07201445103 0.7475317717 0.0813080892
0.07100851834 0.7482953668 0.08158527315
0.0700057596 0.7490618229 0.08186347038
0.06900727749 0.7498390079 0.08214559406
0.06801176816 0.7506170869 0.08242802322
0.06702037901 0.7514042854 0.08271376789
0.066027008 0.7521567941 0.08298692107
0.06503809988 0.7529212236 0.0832644105
0.06405380368 0.7536981702 0.08354645222
0.06306035072 0.7543928623 0.08379861712
0.06208213419 0.7551733851 0.0840819478
0.06108908355 0.7558356524 0.08432233334
0.06008315086 0.7563967705 0.08452601731
0.05908131599 0.75697124 0.08473453671
0.05807349831 0.7574934363 0.08492410928
0.05706362426 0.7579904199 0.08510450274
0.05605067313 0.7584565282 0.08527369052
0.05502466857 0.7588306665 0.08540950716
0.0540028736 0.7592222691 0.08555166423
0.05298069865 0.7596029043 0.08568982035
0.0519573763 0.7599681616 0.08582240343
0.05091855675 0.7602331638 0.08591859788
0.04985655844 0.7603559494 0.0859631747
0.04879066348 0.7604534626 0.08599856496
0.04771962762 0.7605192661 0.08602245897
0.04663374275 0.7604990005 0.0860150978
0.04554753006 0.7604773045 0.08600722998
0.04446512461 0.7604773045 0.08600722998
0.04338265955 0.760477066 0.08600712568
0.04230050743 0.7604784369 0.08600763232
0.04121999443 0.7604886889 0.08601135761
0.08213385195 0.7394318581 0.07717449963
0.08110697567 0.7402715683 0.07748095691
0.08008472621 0.7411246896 0.07779229432
0.07906734943 0.741992712 0.07810908556
0.07805780321 0.7428999543 0.07844015956
0.07703983039 0.7437093854 0.07873558253
0.07602381706 0.7445105314 0.07902795076
0.07501253486 0.7453261614 0.07932560146
0.07400063425 0.7461129427 0.07961274683
0.07299011201 0.7468879819 0.07989559323
0.07198496163 0.7476824522 0.08018554002
0.07098200917 0.7484714389 0.08047347516
0.06997740269 0.7492262125 0.08074893057
0.06898066401 0.7500188351 0.08103818446
0.06798490137 0.7507971525 0.08132223785
0.06698933989 0.7515563965 0.08159932494
0.06599777937 0.7523242235 0.08187954128
0.06500861049 0.7530890703 0.08215865493
0.06402176619 0.7538505197 0.08243656158
0.06303729117 0.7546089888 0.08271336555
0.06205574423 0.7553684711 0.0829905346
0.06107524037 0.7561163306 0.08326345682
0.06009463221 0.7568452954 0.0835294947
0.05911675096 0.7575746179 0.08379565179
0.05814409256 0.758320272 0.0840677768
0.05715157092 0.7589220405 0.08428740501
0.05617433786 0.759606123 0.08453704417
0.05518621206 0.7602068186 0.08475627005
0.05419696867 0.7607870698 0.08496803045
0.05319482833 0.7612758875 0.0851464197
0.05219726264 0.7617813945 0.08533091843
0.05116065592 0.7620437145 0.08542663604
0.05012782663 0.7623224854 0.08552838117
0.0491021499 0.7626369596 0.08564315736
0.04808471352 0.7629922628 0.08577281237
0.04704122245 0.7631915808 0.08584555984
0.04598644376 0.7633231878 0.08589357883
0.04491853714 0.7633787394 0.08591385186
0.04385269433 0.7634445429 0.08593787998
0.04278154671 0.7634800673 0.08595083654
0.04170745611 0.7634989619 0.08595772088
0.04063431174 0.7635225058 0.0859663263
0.03956340998 0.7635574937 0.08597909659
0.03849474341 0.7636035681 0.08599591255
0.03742678463 0.7636524439 0.08601375669
0.08209549636 0.7394706607 0.07599386573
0.0810687691 0.7403168082 0.07630430907
0.08004551381 0.7411660552 0.07661590725
0.07903119922 0.7420651317 0.07694578171
0.07802349329 0.7429920435 0.07728587836
0.07700659335 0.7438143492 0.07758758217
0.07599044591 0.7446180582 0.0778824687
0.07497852296 0.7454320192 0.07818111032
0.07396970689 0.7462468743 0.07848008722
0.07295835763 0.7470183969 0.07876316458
0.07195354253 0.74781847 0.07905671746
0.07095097005 0.7486132979 0.07934834063
0.0699487105 0.7493884563 0.07963275164
0.06895135343 0.7501788735 0.07992275804
0.06795442849 0.7509511709 0.08020612597
0.0669586584 0.7517113686 0.08048503846
0.06596837193 0.7524906993 0.08077096939
0.06498003006 0.7532635927 0.08105454594
0.06399217993 0.7540200949 0.08133212477
0.06300703436 0.7547761798 0.08160951734
0.06202466041 0.7555321455 0.081886895
0.06104651839 0.7562978268 0.08216781914
0.06006556749 0.7570263743 0.08243513107
0.05908511579 0.7577407956 0.08269724995
0.05810776353 0.7584581971 0.08296047896
0.0571321696 0.7591700554 0.08322165161
0.05616550893 0.7599216104 0.08349740505
0.05520295352 0.76068151 0.08377621323
0.05424215645 0.7614350319 0.08405268937
0.05328251421 0.762178719 0.08432556689
0.05230429769 0.7627943754 0.08455144614
0.05133356899 0.7634410858 0.08478872478
0.05034252256 0.7639543414 0.08497703075
0.04934010655 0.764390409 0.08513703197
0.04832126945 0.7647227645 0.08525898308
0.04729703814 0.7650174499 0.08536709845
0.04628042877 0.7653489709 0.08548872918
0.04526055604 0.765655458 0.08560119569
0.0442263484 0.7658765912 0.08568233252
0.04318929464 0.7660777569 0.08575612307
0.04213739187 0.7661945224 0.08579897135
0.04107729346 0.7662650347 0.08582483977
0.04002194107 0.7663593888 0.08585945517
0.03896613419 0.7664495111 0.0858925283
0.03790523112 0.7665113807 0.08591523767
0.03684578836 0.766579628 0.08594026417
0.03578713536 0.7666506171 0.08596631885
0.03472738713 0.7667147517 0.08598984778
0.03366841376 0.7667815685 0.08601436019
0.03259092569 0.7667552233 0.08600468934
0.08205966651 0.7395325899 0.07482040673
0.08103568107 0.7404076457 0.07514318824
0.08001290262 0.7412651777 0.07545949519
0.07899651676 0.7421504259 0.07578603178
0.07798399031 0.7430407405 0.07611444592
0.07696891576 0.7438827753 0.07642503828
0.07595578581 0.744715333 0.07673213631
0.07494509965 0.7455429435 0.07703740895
0.07393434644 0.7463458776 0.07733357698
0.07292623818 0.7471463084 0.07762884349
0.07192196697 0.7479536533 0.07792664319
0.07091873884 0.7487463951 0.07821904123
0.06991752982 0.749532342 0.07850896567
0.06891933084 0.7503191829 0.07879919559
0.06792342663 0.7511016726 0.07908781618
0.06692923605 0.7518756986 0.07937334478
0.06593789905 0.7526498437 0.07965889573
0.06494797766 0.7534139156 0.07994072884
0.06396003067 0.7541722059 0.08022043854
0.06297572702 0.7549363375 0.080502294
0.06199448556 0.7557021379 0.08078477532
0.06101410836 0.756454885 0.08106244355
0.06003405154 0.7571915388 0.08133416623
0.05905478448 0.7579156756 0.08160127699
0.05807349831 0.7586097121 0.08185726404
0.05709510297 0.7593058944 0.0821140632
0.05612964928 0.7600672245 0.08239490539
0.05516265333 0.7608016729 0.0826658085
0.05421028286 0.7616093159 0.08296371251
0.05326744914 0.7624568343 0.08327634633
0.05232027173 0.7632595301 0.0835724324
0.05137113482 0.7640330791 0.08385775983
0.05042361468 0.7647993565 0.08414041996
0.04945508391 0.7654271126 0.08437196165
0.04848364741 0.766024828 0.08459245414
0.04750651866 0.7665777206 0.08479637653
0.046532318 0.7671355009 0.08500213921
0.04551257938 0.7674280405 0.08511003852
0.04449477047 0.7677252889 0.08521968126
0.04346363991 0.7679437399 0.08530026674
0.04245463014 0.7682775855 0.08542339504
0.04142852873 0.7685132027 0.08551032096
0.04040116072 0.7687375546 0.08559308201
0.03937074542 0.7689415812 0.08566833287
0.03832824528 0.7690787911 0.08571895212
0.03728254139 0.7691969275 0.08576251566
0.03623204678 0.7692884207 0.08579625934
0.03518754989 0.7694084644 0.08584055305
0.03414233029 0.7695227265 0.08588269353
0.03309389204 0.7696189284 0.08591817319
0.0320372507 0.7696729898 0.0859381184
0.03098046221 0.7697253823 0.0859574452
0.02992667444 0.7697913647 0.08598178625
0.0288642738 0.7698149085 0.08599047363
0.08202338219 0.7395908833 0.07364433259
0.08099785447 0.740457058 0.07396553457
0.07997382432 0.7413085103 0.07428126782
0.07896047086 0.7422244549 0.07462093979
0.07794845849 0.7431233525 0.07495427132
0.07693420351 0.7439761758 0.07527052611
0.07591997087 0.7448036075 0.07557734847
0.07491201907 0.7456569672 0.07589381188
0.0739017874 0.7464674115 0.07619433105
0.07289288193 0.7472648621 0.07649005204
0.07188860327 0.7480753064 0.07679059356
0.07088562846 0.748873055 0.07708641142
0.0698845908 0.7496632934 0.07737945765
0.06888567656 0.7504477501 0.07767034322
0.06788861752 0.751224637 0.07795842737
0.06689554453 0.7520096302 0.07824952155
0.06590418518 0.7527862787 0.0785375312
0.06491477042 0.7535564899 0.0788231492
0.0639270395 0.7543187141 0.07910580933
0.06294158846 0.7550774217 0.07938714325
0.06195938587 0.7558391094 0.07966961712
0.06097798049 0.7565875053 0.07994713634
0.05999752879 0.7573239803 0.08022023737
0.05901995301 0.7580615878 0.08049376309
0.05804104358 0.7587731481 0.0807576254
0.0570621416 0.759468019 0.08101531118
0.05609955639 0.7602493763 0.08130505681
0.05513391644 0.7609938979 0.08158114552
0.05418432504 0.7618201375 0.08188753575
0.05323417485 0.7626245618 0.08218581975
0.05227974057 0.7633853555 0.08246795833
0.05133385211 0.7641803622 0.0827627629
0.05039262772 0.7649855614 0.08306133747
0.04945264757 0.7657807469 0.083356224
0.04851044714 0.7665463686 0.08364012837
0.04757150263 0.7673143744 0.08392494172
0.04661702365 0.7679790854 0.08417143673
0.04565742612 0.7686017156 0.08440230787
0.04469360411 0.7691882849 0.08461982757
0.04371407628 0.769677341 0.0848011896
0.04273536801 0.7701610923 0.08498057723
0.04171770066 0.7704268694 0.08507911861
0.04067639261 0.7705620527 0.08512925357
0.03966598958 0.7708569169 0.08523859084
0.03865815699 0.7711594105 0.08535077423
0.03764208406 0.7714138031 0.08544511348
0.03661938757 0.7716296315 0.08552514762
0.03559502959 0.7718330026 0.08560056239
0.03456604481 0.7720094919 0.08566601574
0.03352888674 0.7721422315 0.08571523428
0.03249690682 0.7722979784 0.08577299118
0.03145672381 0.7724109888 0.08581489325
0.03040853329 0.7724833488 0.08584171534
0.0293743778 0.772621572 0.08589298278
0.02834034152 0.7727579474 0.08594354987
0.0272589568 0.7726692557 0.08591066301
0.02611599304 0.7722949386 0.08577185124
0.02472137846 0.7707634568 0.08520394564
0.08198456466 0.7396268249 0.07245864719
0.08095939457 0.7405012846 0.07278463989
0.07993531972 0.7413572073 0.07310372591
0.07892517 0.7423052788 0.0734571591
0.07791273296 0.7432047129 0.07379246503
0.07689858973 0.7440625429 0.0741122514
0.07588520646 0.744900763 0.0744247362
0.07487383485 0.7457303405 0.07473398745
0.07386448234 0.7465516925 0.07504018396
0.07285857201 0.7473762631 0.07534758002
0.07185433805 0.7481904626 0.07565108687
0.0708514154 0.7489917278 0.07594981045
0.069850564 0.7497864366 0.07624606788
0.06885137409 0.7505717874 0.076538831
0.06785400957 0.7513493299 0.07682870328
0.06685965508 0.752128005 0.07711897045
0.06586867571 0.7529102564 0.07741058618
0.06487828493 0.7536764145 0.07769621164
0.06389028579 0.7544395924 0.07798071206
0.06290514022 0.7552030683 0.07826533169
0.06192304194 0.7559680939 0.07855053991
0.06094197929 0.7567212582 0.07883130759
0.05996062607 0.7574542761 0.07910456508
0.05898344517 0.7581968904 0.07938139886
0.05800755322 0.7589301467 0.07965476066
0.05703183264 0.7596473694 0.07992211729
0.05606884509 0.7604279518 0.08021311462
0.05511052907 0.7612196207 0.08050825447
0.05415566266 0.7620146275 0.08080461621
0.05320103467 0.7627932429 0.08109488338
0.05225140601 0.763584733 0.08138994128
0.05130114406 0.7643550634 0.0816771239
0.05036228895 0.7651757598 0.0819830671
0.0494223237 0.7659724355 0.08228005469
0.0484790653 0.7667333484 0.08256372064
0.04754086584 0.7675070763 0.08285215497
0.04660432786 0.7682740688 0.0831380859
0.04566787183 0.7690258622 0.08341833949
0.04473414272 0.7697774172 0.08369851112
0.0438028276 0.7705270052 0.08397794515
0.04285439104 0.7711691856 0.0842173472
0.04190675914 0.7718029618 0.08445362002
0.04093290865 0.7722855806 0.08463353664
0.03994987905 0.772710681 0.08479200304
0.03896354884 0.7731105089 0.08494105935
0.03793194145 0.7732697725 0.08500042558
0.03690324724 0.7734408379 0.0850641951
0.03590720892 0.7737737298 0.08518829197
0.03491123766 0.7741007209 0.08531019837
0.03389836848 0.774338007 0.08539866656
0.03288458288 0.7745665312 0.0854838416
0.03186855465 0.7747799754 0.08556342125
0.03084454127 0.7749511003 0.08562722057
0.02982486226 0.7751399279 0.08569761366
0.0287711937 0.7751643658 0.08570671082
0.02771071531 0.7751563191 0.08570371568
0.02621741779 0.7731313109 0.08494880795
0.0249400679 0.7721385956 0.08457873762
0.02372589149 0.7714521289 0.08432282507
0.02252134122 0.7708207965 0.08408748358
0.02132059075 0.7702171803 0.0838624537
0.08194451779 0.7396521568 0.07126761973
0.08092175424 0.7405531406 0.07160527259
0.07989868522 0.7414226532 0.07193113118
0.07888310403 0.7423287034 0.07227068394
0.07787364721 0.7432582378 0.07261902839
0.07686220855 0.74414289 0.07295057178
0.07584948838 0.7449905276 0.07326822728
0.07483954728 0.7458353639 0.0735848397
0.07382906228 0.7466512322 0.07389058918
0.07282276452 0.7474763989 0.07419981807
0.07181830704 0.7482922673 0.07450556755
0.0708149597 0.7490936518 0.07480590791
0.06981444359 0.7498942614 0.07510592788
0.06881699711 0.7506956458 0.07540626079
0.06781904399 0.7514718175 0.07569714636
0.06682372838 0.7522464395 0.07598743588
0.06583211571 0.7530270815 0.07627997547
0.06484188884 0.7537972331 0.07656859607
0.06385397911 0.7545638084 0.07685587555
0.06286934018 0.755333364 0.07714428753
0.06188715994 0.7561004758 0.07743176073
0.06090524048 0.7568504214 0.07771281153
0.05992473662 0.757591486 0.07799053192
0.05894708633 0.7583334446 0.07826857269
0.05797303468 0.7590808868 0.07854868472
0.05699847639 0.7598075867 0.07882102579
0.05603452772 0.7605840564 0.07911201566
0.05507353693 0.7613611221 0.07940322906
0.05411621928 0.7621431947 0.0796963051
0.05316465348 0.7629426122 0.07999590784
0.05221618712 0.7637429833 0.08029585332
0.05127462745 0.7645667791 0.08060457557
0.05033437163 0.7653804421 0.08090949059
0.04939093441 0.7661582232 0.08120097965
0.04844879359 0.7669270039 0.0814890787
0.047508955 0.7676927447 0.08177604526
0.04657031596 0.7684493065 0.08205958456
0.04563342035 0.7692001462 0.08234094828
0.04470495135 0.7699820995 0.08263400197
0.04377806932 0.7707570195 0.08292440325
0.04284741729 0.7714961171 0.08320139349
0.04191813618 0.7722280622 0.08347568661
0.04099649191 0.772986114 0.0837597698
0.04006441683 0.7736748457 0.08401787281
0.03912264109 0.7742999792 0.08425215632
0.0381622985 0.7748177648 0.08444620669
0.03720346838 0.7753335834 0.08463950455
0.0362289995 0.7757608294 0.08479963243
0.0352466926 0.7761410475 0.08494212478
0.03420442343 0.7762172222 0.08497065306
0.03318620473 0.7764100432 0.08504292369
0.03219041973 0.7767086029 0.08515480906
0.03121009655 0.7770764232 0.0852926597
0.03019998409 0.777295351 0.08537469804
0.02919597365 0.7775393724 0.08546615392
0.0281231869 0.7774561048 0.08543494344
0.02648526616 0.7747421861 0.08441788703
0.02522220649 0.7738054991 0.08406684548
0.02402620949 0.7731916904 0.0838368088
0.02277962305 0.7723584175 0.08352455497
0.02147551812 0.7712799907 0.08312040567
0.02012505569 0.7700123191 0.0826453194
0.08190403134 0.7396740317 0.07007388026
0.0808820501 0.7405871749 0.07041790336
0.07985728234 0.7414470315 0.07074181736
0.07884582132 0.7423933148 0.07109832764
0.07783315331 0.7433002591 0.07143997401
0.07682395726 0.7442081571 0.07178200781
0.07581225038 0.7450682521 0.07210602611
0.07480257004 0.745919168 0.07242660224
0.07379271835 0.7467439175 0.07273729891
0.07278735191 0.7475798726 0.07305223495
0.07178292423 0.7483993769 0.07336095721
0.07077910751 0.7492005825 0.07366278768
0.06977754086 0.7499964833 0.07396264374
0.06878101081 0.7508078814 0.07426831871
0.0677838251 0.7515928149 0.0745640099
0.06678815186 0.7523677349 0.07485593855
0.06579583883 0.7531462312 0.07514921576
0.06480620056 0.7539233565 0.07544198632
0.06381838769 0.7546932697 0.07573204488
0.06283333153 0.7554626465 0.07602187991
0.06185049564 0.7562278509 0.07631015033
0.06086808443 0.7569770813 0.07659241557
0.05988728255 0.7577187419 0.07687181979
0.05891183019 0.7584773898 0.07715761662
0.05793718249 0.7592232227 0.07743860036
0.05696558952 0.7599710226 0.07772031426
0.05599716306 0.7607213855 0.07800298184
0.05503407866 0.7614876628 0.07829167694
0.05407960713 0.7622894645 0.07859371603
0.05312891304 0.7630961537 0.07889762521
0.05218137801 0.7639039755 0.07920195162
0.05124938488 0.7647861838 0.07953431457
0.05030459911 0.7655743957 0.07983125001
0.04935842752 0.7663376927 0.08011881262
0.04841583967 0.7671054006 0.08040802926
0.04747832566 0.7678858638 0.08070204407
0.04654161632 0.7686546445 0.08099166304
0.04560472071 0.7694066167 0.08127495646
0.0446760729 0.7701887488 0.08156959713
0.04374650121 0.770950079 0.08185642213
0.04281506687 0.7716862559 0.08213374764
0.04188946635 0.7724390626 0.08241735399
0.04096636921 0.7731904387 0.08270041645
0.04003987461 0.7739095092 0.08297131211
0.03912653029 0.7746830583 0.08326271921
0.03820426017 0.775396049 0.08353132755
0.03728417307 0.7761067748 0.08379907161
0.03635761887 0.776771605 0.08404953778
0.03542532027 0.7773955464 0.08428458124
0.0344742164 0.7779148817 0.08448024839
0.03351695836 0.7783946991 0.08466099203
0.03255505115 0.7788432837 0.08482999355
0.03155998141 0.7791240215 0.08493575454
0.03056963719 0.7794224024 0.08504816145
0.02954162844 0.7795372009 0.08509140462
0.02824953385 0.7784101963 0.08466683328
0.02678793855 0.7765135765 0.08395233005
0.02548965253 0.7754029036 0.0835339129
0.02420776524 0.7743859887 0.08315081894
0.02286433615 0.7731069326 0.08266896009
0.02145616151 0.7715576887 0.08208531141
0.02002956904 0.7699517012 0.08148030937
0.08186589181 0.7397173643 0.06888683885
0.08084271848 0.7406250238 0.06923056394
0.07982234657 0.741527915 0.06957250088
0.07880822569 0.7424557805 0.06992387027
0.07779703289 0.7433794141 0.07027366012
0.07678557932 0.7442727089 0.07061193883
0.07577493787 0.7451457381 0.07094255835
0.07476532459 0.746001184 0.07126650959
0.07375767827 0.7468471527 0.07158689201
0.07275187969 0.7476832271 0.07190351188
0.071747832 0.748509109 0.07221625
0.07074370235 0.7493111491 0.07251999527
0.0697421208 0.7501101494 0.07282257825
0.06874438375 0.7509158254 0.07312767208
0.06774738431 0.7517051697 0.07342660427
0.06675168127 0.7524828911 0.07372112572
0.06575899571 0.753261745 0.07401606441
0.06476928294 0.7540411353 0.07431124151
0.06378207356 0.7548180819 0.07460546494
0.06279663742 0.7555875182 0.07489684224
0.06181333959 0.7563522458 0.07518643886
0.06083070487 0.7571026087 0.07547061145
0.05985172838 0.7578588128 0.07575698942
0.05887652189 0.7586213946 0.07604576647
0.05790092796 0.7593634129 0.07632677257
0.05692844093 0.7601077557 0.07660864294
0.05595806986 0.7608481646 0.07688903809
0.05499517173 0.7616178989 0.07718054205
0.05404061824 0.7624213696 0.07748481631
0.05309395492 0.7632546425 0.07780038565
0.05214449763 0.7640528083 0.07810262591
0.05120607466 0.7648988366 0.07842303067
0.05026788265 0.7657279372 0.07873701304
0.04932584614 0.7665170431 0.07903584093
0.04838253558 0.7672821283 0.07932556421
0.0474448055 0.76806283 0.0796212256
0.04650933295 0.7688400149 0.07991555333
0.04557632655 0.7696150541 0.08020903915
0.04464738816 0.7703966498 0.08050503582
0.04371615499 0.7711500525 0.0807903558
0.04278288037 0.7718774676 0.08106583357
0.04185498506 0.772619307 0.08134675771
0.04093422741 0.7733843327 0.08163648099
0.04000671953 0.7740992904 0.08190722764
0.03909305483 0.7748723626 0.08219997585
0.03816724569 0.7755683064 0.08246354759
0.03724577278 0.7762733698 0.08273053914
0.03633207083 0.7770044208 0.08300738782
0.03542079031 0.7777340412 0.0832837075
0.03452514112 0.7785277963 0.08358428627
0.03362286836 0.7792745829 0.08386711031
0.03270775825 0.7799456716 0.08412124217
0.03177767247 0.7805327177 0.08434354514
0.03084918298 0.7811169624 0.08456480503
0.02966326661 0.7804726958 0.08432082832
0.02826461382 0.7788414359 0.08370307833
0.02688942291 0.7773473263 0.08313725889
0.0255610887 0.7760947943 0.08266291767
0.02419259585 0.7746797204 0.08212703466
0.02279595472 0.773160696 0.08155178279
0.02136416174 0.7715087533 0.08092620224
0.01993518509 0.7698966265 0.08031569421
0.08182565123 0.7397423387 0.06769146025
0.08080548048 0.7406817675 0.06804906577
0.07978170365 0.7415598035 0.06838332117
0.07877121121 0.7425234914 0.0687501654
0.07775910199 0.7434437871 0.06910049915
0.0767493993 0.7443558574 0.06944768876
0.0757381022 0.7452275753 0.06977952272
0.07472973317 0.7460967898 0.07011042535
0.07372312248 0.7469546795 0.07043700665
0.07271567732 0.7477813363 0.07075168192
0.07170975953 0.748596251 0.07106188685
0.07070617378 0.7494060397 0.07137016207
0.06970566511 0.7502164841 0.07167866826
0.06870753318 0.7510223985 0.07198546082
0.06770995259 0.7518106699 0.07228554785
0.06671506912 0.7525973916 0.07258502394
0.06572178006 0.7533748746 0.07288099825
0.06473200768 0.7541568279 0.07317866385
0.06374499202 0.7549379468 0.07347600162
0.06275933236 0.7557085752 0.07376936078
0.06177598238 0.7564755678 0.07406134903
0.06079541892 0.757242322 0.07435323298
0.05981709808 0.7580052018 0.07464362681
0.05883908272 0.7587518096 0.07492783666
0.05786313862 0.759493947 0.07521036267
0.05689102411 0.7602430582 0.07549551874
0.05592021346 0.7609829903 0.07577720284
0.05495799333 0.7617591619 0.07607266307
0.05400585383 0.7625795007 0.0763849467
0.05305857211 0.7634108663 0.07670143247
0.05211288482 0.76423347 0.07701455802
0.05117051303 0.7650576234 0.07732830942
0.05022807419 0.7658635974 0.07763511688
0.04928789288 0.7666654587 0.07794035971
0.0483487919 0.7674565315 0.07824148983
0.04740994424 0.7682324052 0.07853684574
0.04647403955 0.7690087557 0.07883239537
0.04554131627 0.7697868347 0.07912858576
0.04461262375 0.7705712914 0.07942720503
0.04368782789 0.7713612318 0.07972791046
0.04275284708 0.7720805407 0.08000172675
0.04182279855 0.7728119493 0.08028015494
0.04089475423 0.773539722 0.08055719733
0.03997020423 0.774271667 0.0808358416
0.03904978931 0.7750110626 0.08111730963
0.03813162446 0.7757480145 0.08139784634
0.03721134365 0.7764603496 0.08166900277
0.03629100323 0.7771591544 0.08193501085
0.03537330031 0.7778581977 0.08220113069
0.03447706997 0.778650701 0.0825028047
0.03357952088 0.7794224024 0.08279657364
0.03268875182 0.7802131772 0.08309759945
0.03181371093 0.7810655832 0.08342209458
0.03088525124 0.7816480994 0.08364383876
0.02965825237 0.7808084488 0.08332420141
0.02826892771 0.7792221904 0.0827203542
0.026898982 0.7777532339 0.08216117322
0.02551087178 0.7762255669 0.08157964051
0.02411971428 0.7747097611 0.08100260049
0.02271758951 0.7731696367 0.0804163143
0.02127971686 0.7714943886 0.07977859676
0.01983126439 0.7697995901 0.07913343608
0.08178822696 0.739792943 0.06650444865
0.08076684177 0.7407265306 0.06686167419
0.07974527031 0.7416285872 0.06720685214
0.07873554528 0.7426032424 0.06757980585
0.07772206515 0.7435160875 0.06792911142
0.07671269029 0.7444350123 0.06828073412
0.07570280135 0.7453221679 0.06862019747
0.07469426841 0.7461938858 0.06895375997
0.07368536294 0.7470371723 0.06927645952
0.0726782158 0.7478699088 0.06959510595
0.07167203724 0.7486864924 0.06990755349
0.07066616416 0.7494825125 0.07021216303
0.0696657598 0.7502973676 0.07052397728
0.06866753846 0.7511062026 0.07083346695
0.06767010689 0.7518989444 0.07113681734
0.06667805463 0.7527093887 0.0714469254
0.06568514556 0.7534924746 0.0717465654
0.06469552219 0.7542783022 0.07204727829
0.06370799989 0.7550587058 0.07234588265
0.06272239238 0.7558323741 0.07264194638
0.06173841655 0.7565978765 0.0729348585
0.0607572943 0.7573635578 0.07322783768
0.05977839231 0.758125186 0.07351928204
0.0588004142 0.7588745952 0.07380603254
0.05782482773 0.759621501 0.07409185171
0.05685278028 0.7603734136 0.07437957078
0.05588443577 0.7611311078 0.07466950268
0.05492255837 0.7619114518 0.07496809959
0.05396712571 0.7627136707 0.07527505606
0.05301781744 0.7635348439 0.07558929175
0.05207309872 0.7643654346 0.07590711117
0.05112940073 0.765183866 0.07622028142
0.05018632114 0.7659882307 0.07652806491
0.04925245792 0.7668287754 0.07684969902
0.04831861705 0.7676516175 0.07716455311
0.04737447202 0.7683988214 0.07745048404
0.04643841088 0.7691758871 0.07774782926
0.04550472647 0.7699501514 0.0780441016
0.04457499832 0.7707304955 0.07834270597
0.04365028441 0.7715224624 0.07864573598
0.04272025079 0.7722699642 0.07893177122
0.04178987443 0.773000896 0.07921147346
0.04085806012 0.7737100124 0.07948280871
0.03992734104 0.7744111419 0.07975108922
0.03900976479 0.7751669288 0.0800402984
0.03809040785 0.7758992314 0.08032051474
0.03717178851 0.7766215801 0.08059691638
0.03625049442 0.7773169875 0.08086300641
0.03534016013 0.7780542374 0.08114512265
0.03443143517 0.7787860036 0.08142512292
0.03352982551 0.7795393467 0.08171339333
0.03263314068 0.780303061 0.08200564235
0.03173745424 0.781058073 0.08229453117
0.03078585304 0.7815330625 0.08247630298
0.02956773527 0.7807400227 0.08217284083
0.02821207233 0.7793162465 0.08162802458
0.02683184482 0.7778027654 0.08104889095
0.02544105984 0.776266396 0.08046099544
0.02403884567 0.7747037411 0.07986304909
0.02262025513 0.7730930448 0.07924673706
0.02117357589 0.7713830471 0.07859238982
0.01973230578 0.7697252035 0.07795801759
0.08175634593 0.7398935556 0.0653353557
0.08073073626 0.740794003 0.06568168849
0.07970564067 0.7416701317 0.0660186708
0.07869778574 0.74266541 0.06640148908
0.07768695801 0.7436049581 0.06676286459
0.0766768381 0.7445216775 0.06711547077
0.0756669566 0.7454127073 0.06745818257
0.07465633005 0.7462714911 0.06778848916
0.07364632934 0.7471100092 0.0681110248
0.07263677567 0.7479279637 0.06842561811
0.07162777334 0.7487269044 0.06873291731
0.07062401623 0.7495431304 0.06904686987
0.06962534785 0.7503748536 0.069366768
0.06862618774 0.7511803508 0.06967659295
0.06762997806 0.7519856095 0.06998630613
0.06663893163 0.7528065443 0.07030205429
0.0656485036 0.7536103725 0.07061123848
0.06465730071 0.7543880343 0.07091035694
0.06366972625 0.7551708817 0.07121147215
0.06268565357 0.7559579611 0.07151418924
0.06170113385 0.7567223907 0.07180821896
0.06071905792 0.7574842572 0.07210125774
0.05973905325 0.7582412958 0.07239241898
0.05876102298 0.75899297 0.07268154621
0.05778621137 0.7597474456 0.07297174633
0.05681414157 0.7605016232 0.07326181233
0.05584544688 0.7612594366 0.07355329394
0.05488472432 0.7620492578 0.07385708392
0.0539283976 0.7628480792 0.07416433841
0.05297613144 0.7636535764 0.0744741559
0.05203146487 0.7644867301 0.07479459792
0.05109104514 0.7653267384 0.0751176849
0.0501460731 0.7661219835 0.07542356849
0.0492105931 0.7669550776 0.07574401051
0.0482756272 0.7677735686 0.07605881989
0.04734096676 0.7685765624 0.07636767626
0.04640445113 0.7693526149 0.07666615397
0.0454666838 0.77010566 0.07695581764
0.0445356518 0.7708805203 0.07725384831
0.04360806197 0.7716584802 0.07755307853
0.04267872125 0.7724115252 0.07784271985
0.04174177349 0.7731091976 0.07811106741
0.04081387818 0.773841083 0.07839255035
0.03988441825 0.7745506167 0.07866545767
0.03897186369 0.7753340006 0.0789667815
0.03805311769 0.7760708332 0.07925020158
0.03713349998 0.7767894864 0.07952659577
0.03620860726 0.7774680853 0.07978761941
0.03530053794 0.7782181501 0.08007610589
0.034386985 0.7789273858 0.08034890145
0.03347762674 0.7796443105 0.08062465489
0.03257496655 0.7803809047 0.08090796322
0.03167589009 0.781121552 0.08119285107
0.03071934916 0.7815753818 0.08136739582
0.02950571664 0.7808068395 0.08107178658
0.02814634331 0.7793690562 0.08051878214
0.02675400861 0.7778029442 0.07991641015
0.02535961755 0.7762539983 0.07932064682
0.02394209243 0.774625659 0.07869432867
0.02250499465 0.7729359865 0.07804444432
0.02107051946 0.7712860703 0.07740984112
0.0196273867 0.7696248293 0.07677087188
0.0817193836 0.7399491072 0.0641477108
0.08069356531 0.7408525348 0.06449698657
0.07967099547 0.7417551279 0.06484593451
0.07865740359 0.7427057028 0.06521344185
0.07765065134 0.743684113 0.06559171528
0.07664075494 0.7446067929 0.06594841927
0.07562987506 0.7454936504 0.06629128754
0.07461777329 0.7463444471 0.06662022322
0.07360508293 0.7471657395 0.06693774462
0.07259669155 0.7479968667 0.06725907326
0.07159055769 0.7488217354 0.06757796556
0.07058886439 0.7496570945 0.06790092587
0.06958888471 0.750482142 0.06821990758
0.06858746707 0.7512742877 0.06852614135
0.06759478897 0.7521084547 0.06884864718
0.06659907848 0.7528988123 0.06915421784
0.0656092912 0.7537104487 0.06946799904
0.0646186769 0.7544953227 0.06977143884
0.06362977624 0.7552719712 0.07007169724
0.06264592707 0.7560634613 0.07037769258
0.06166175753 0.7568331361 0.07067526132
0.06067895144 0.7575929165 0.07096900791
0.05970008671 0.7583602071 0.07126563042
0.05872248113 0.7591171861 0.07155830413
0.05774733424 0.7598719597 0.07185011357
0.0567753762 0.7606292963 0.07214290649
0.05580472201 0.761377275 0.07243207842
0.05484334379 0.7621654272 0.07273678482
0.05389021337 0.7629861832 0.07305409014
0.05293815583 0.7637950182 0.07336679101
0.05199042708 0.7646118402 0.07368259132
0.05105127394 0.7654615045 0.07401107997
0.05011300743 0.7662979364 0.07433446497
0.0491713509 0.7670968771 0.07464334369
0.04823341221 0.7679002285 0.07495392114
0.04730132222 0.768719852 0.07527079433
0.04636655003 0.7695074677 0.07557529211
0.04542665184 0.7702504396 0.07586254179
0.04449461401 0.7710215449 0.07616064698
0.043562904 0.7717788815 0.07645344734
0.04263480008 0.7725405693 0.07674792409
0.0417066291 0.7732868195 0.07703644037
0.04078638554 0.7740604281 0.07733552158
0.03985136747 0.774741888 0.07759897411
0.03893087804 0.775485456 0.07788643986
0.03800388426 0.7761815786 0.07815556973
0.03708858043 0.7769239545 0.078442581
0.03616643697 0.7776181102 0.07871095836
0.03524991125 0.7783274651 0.07898520678
0.03434169292 0.7790648937 0.0792703107
0.03343018144 0.7797728777 0.07954401523
0.03252100199 0.7804794908 0.07981719077
0.03162178397 0.7812213302 0.08010400832
0.0306505654 0.7816072702 0.08025320619
0.0294308532 0.7808133364 0.07994625717
0.02806509472 0.7793496847 0.07938040048
0.02666548081 0.7777540088 0.07876349986
0.02525845356 0.7761514783 0.07814393938
0.02383432724 0.7744979262 0.07750466466
0.02239962853 0.7728242874 0.07685760409
0.02095060982 0.7711141706 0.07619646192
0.01951224543 0.7694795728 0.07556451857
0.08168137074 0.739995718 0.06295527518
0.08065423369 0.7408924699 0.06330376118
0.0796366334 0.7418429852 0.06367311627
0.07862053812 0.7427763939 0.06403583288
0.07761087269 0.7437345982 0.06440820545
0.07660434395 0.7446895242 0.06477928162
0.07559111714 0.7455613017 0.06511802971
0.07457694411 0.746399641 0.0654438287
0.07356318831 0.7472168207 0.06576137245
0.07255855203 0.7480813861 0.06609733403
0.07155793905 0.7489522099 0.0664357394
0.07055465132 0.7497785091 0.06675682962
0.06955741346 0.7506270409 0.06708656996
0.06855249405 0.75139606 0.06738539785
0.06755941361 0.7522302866 0.06770956516
0.0665647313 0.7530308962 0.06802070141
0.06557051092 0.7538139224 0.06832496077
0.0645789206 0.7545949817 0.06862848997
0.06358993798 0.7553741336 0.06893126667
0.06260585785 0.7561669946 0.06923937798
0.06162206084 0.7569420338 0.06954055279
0.06063880026 0.7577016354 0.06983572245
0.05966011435 0.7584728003 0.07013539225
0.05868313462 0.7592365146 0.07043215632
0.05770777166 0.7599924803 0.07072592527
0.05673635751 0.7607556581 0.07102250308
0.05576527864 0.7615033984 0.07131305337
0.0548023358 0.7622842193 0.07161647826
0.05385058373 0.7631157041 0.07193959504
0.0528979376 0.7639231682 0.0722533837
0.05195111036 0.76474756 0.07257373631
0.05101151764 0.7655966282 0.07290367037
0.05007314682 0.7664344907 0.07322927564
0.04913191497 0.7672379017 0.07354146242
0.04819321632 0.7680387497 0.07385268062
0.04726050794 0.7688567638 0.07417054474
0.04632742703 0.7696557641 0.07448103279
0.04538705945 0.7703979611 0.07476944476
0.04445683956 0.7711806893 0.07507362217
0.04351950437 0.7719091177 0.07535668463
0.04258518666 0.7726392746 0.07564041018
0.04166381806 0.7734239101 0.07594531775
0.04074006528 0.7741807103 0.07623941451
0.03981278837 0.7749044895 0.07652065903
0.03888515383 0.7756125331 0.07679581642
0.03795788437 0.776309073 0.07706647366
0.0370394215 0.7770372033 0.07734942436
0.03612108529 0.7777523994 0.07762734592
0.03520274907 0.778454423 0.07790014893
0.03428791463 0.7791608572 0.07817467302
0.03337883204 0.7798826694 0.07845516503
0.03246708959 0.7805786729 0.07872561365
0.03157030791 0.7813340425 0.07901916653
0.03055998124 0.7815358043 0.07909755409
0.02934320457 0.7807599902 0.07879607379
0.02796500362 0.7792426348 0.0782064423
0.02655711211 0.7776136398 0.07757342607
0.02515004016 0.7760161757 0.07695265114
0.02372070588 0.7743440866 0.07630290091
0.02228819765 0.7726857662 0.07565848529
0.02086033858 0.7710757256 0.07503283024
0.01939550973 0.769327879 0.07435362786
0.08164101094 0.7400217652 0.0617534779
0.08061546832 0.740937829 0.06211126968
0.07959324867 0.7418532968 0.0624688454
0.07858125865 0.742826879 0.06284911186
0.07757326961 0.7438037395 0.06323065609
0.07656736672 0.7447680235 0.06360727549
0.0755534023 0.7456378341 0.06394699961
0.07453683764 0.7464610338 0.06426854432
0.07352451235 0.7472937107 0.06459376216
0.07252690196 0.748216629 0.0649542436
0.07152917981 0.7491125464 0.06530416012
0.07052824646 0.7499591708 0.06563483924
0.06952396035 0.7507573962 0.06594662368
0.06852114946 0.7515448332 0.06625418365
0.06752228737 0.7523397207 0.06656464934
0.06652837992 0.7531489134 0.06688070297
0.06553371251 0.7539317012 0.06718643755
0.06454037875 0.7547035217 0.06748790294
0.06354986131 0.7554749846 0.06778923422
0.0625654012 0.7562682629 0.06809906662
0.06158223748 0.7570505142 0.06840458512
0.06059959531 0.7578169703 0.06870396435
0.05962148309 0.7585945129 0.06900765747
0.05864357203 0.7593547702 0.06930458546
0.05766752362 0.7601088881 0.06959915161
0.05669549108 0.7608707547 0.0698967129
0.0557256192 0.761628449 0.07019266486
0.05476208031 0.7624079585 0.07049711794
0.05381008983 0.7632402778 0.07082220167
0.05286312103 0.7640842199 0.07115183771
0.05191865563 0.7649245262 0.07148004323
0.05096877366 0.7657144666 0.07178857923
0.05002789199 0.7665398717 0.0721109733
0.04908827692 0.7673549056 0.07242930681
0.04814810306 0.7681495547 0.07273968309
0.04721803218 0.7689846158 0.07306584716
0.04628401995 0.7697803378 0.07337664068
0.04534693062 0.7705427408 0.07367441058
0.04441489279 0.7713173032 0.07397694141
0.04347946495 0.7720578909 0.0742662102
0.04255130887 0.7728228569 0.07456497848
0.04162301868 0.7735720277 0.07485759258
0.04069432616 0.77430439 0.07514365017
0.03976907581 0.7750406265 0.07543121278
0.03884202987 0.7757534981 0.07570963353
0.03791622818 0.7764591575 0.07598526031
0.03699081391 0.7771535516 0.07625648379
0.03607355803 0.7778760195 0.07653866708
0.0351543352 0.7785753608 0.07681182027
0.03423748165 0.7792736888 0.07708456367
0.03332388401 0.7799751759 0.07735856622
0.03241726756 0.7806979418 0.07764085382
0.03152412176 0.7814724445 0.0779433772
0.03047558106 0.7814942598 0.07795187831
0.02924695052 0.7806665301 0.07762859762
0.02785857208 0.7791064978 0.07701927423
0.02645180561 0.7774880528 0.07638712972
0.02503480203 0.7758501172 0.07574737817
0.02360435762 0.7741785645 0.07509449869
0.02218166925 0.772570014 0.07446624339
0.02074416913 0.770921886 0.07382249832
0.08160540462 0.7400907278 0.0605670698
0.08058086783 0.741020143 0.06093194708
0.07955481112 0.7419067621 0.06128000468
0.07854586095 0.7429108024 0.06167416647
0.07753732055 0.7438871264 0.06205743179
0.07652884722 0.7448341846 0.06242921576
0.07551429421 0.7457033992 0.06277045608
0.07449886203 0.7465398908 0.06309884042
0.07349202037 0.7474196553 0.06344419718
0.07249506563 0.7483507395 0.06380973011
0.07149070501 0.7491987944 0.06414264441
0.07048525661 0.7500149012 0.06446302682
0.06948401779 0.750839889 0.06478688121
0.06848474592 0.7516567707 0.06510757655
0.06748504937 0.752448678 0.06541846693
0.06648933142 0.7532480359 0.06573227048
0.06549544632 0.7540394068 0.06604294479
0.0645037815 0.7548258901 0.0663516745
0.06350945681 0.755573988 0.06664536893
0.06252391636 0.7563628554 0.06695505977
0.06154166907 0.7571542263 0.06726573408
0.06056052446 0.7579334974 0.06757164747
0.05958206207 0.7587113976 0.06787702441
0.05860234797 0.759462595 0.06817192584
0.05762580037 0.7602162361 0.0684677735
0.05665427446 0.7609838843 0.06876914203
0.05568353087 0.7617387176 0.06906545907
0.05472004414 0.7625210285 0.069372572
0.05376897752 0.7633613348 0.06970246136
0.05282075703 0.7642000914 0.07003171742
0.05187600106 0.7650408745 0.07036180049
0.05092896521 0.7658498883 0.07067939639
0.04998449981 0.7666564584 0.07099601626
0.04904507101 0.7674747109 0.0713172555
0.04810660332 0.768281281 0.07163387537
0.04717464 0.7691075802 0.0719582662
0.04624035954 0.7699038386 0.07227085531
0.04530486465 0.7706770897 0.07257439941
0.04436981678 0.7714370489 0.07287274301
0.04344044626 0.7722125053 0.07317715883
0.04250814766 0.7729567885 0.0734693557
0.04158082604 0.7737129331 0.07376618683
0.04064826667 0.7744266987 0.07404640317
0.03972432017 0.7751715779 0.07433880866
0.03879912943 0.7758957744 0.07462311536
0.03787114471 0.7765919566 0.07489642501
0.03694367409 0.7772776484 0.07516560704
0.03602349013 0.7779872417 0.07544416189
0.03510574251 0.7786958218 0.07572232932
0.0341861546 0.7793823481 0.07599183917
0.03327276558 0.7800867558 0.07626836747
0.03235687315 0.7807663679 0.07653518021
0.0314411521 0.7814347744 0.07679756731
0.03041173704 0.7815509439 0.07684317231
0.02914527245 0.7805481553 0.07644951344
0.02775766142 0.7789968252 0.07584050298
0.02635264583 0.7773915529 0.07521031797
0.02494197525 0.7757875919 0.0745806545
0.02351761796 0.7741484642 0.07393717766
0.02206648327 0.7724158168 0.0732569918
0.02063367702 0.770794034 0.07262030989
0.08156426996 0.7401108146 0.05936012417
0.08054103702 0.7410570383 0.05973346904
0.07951579243 0.7419556379 0.06008803844
0.07850761712 0.7429709435 0.06048863381
0.07750316709 0.7439858913 0.06088909507
0.07649113238 0.7449073792 0.06125267968
0.07547423989 0.7457617521 0.06158978865
0.07446306199 0.7466365099 0.06193492562
0.07346141338 0.7475606799 0.06229958311
0.07245561481 0.7484261394 0.06264104694
0.07144831121 0.7492554784 0.06296828389
0.07044132054 0.7500639558 0.06328728795
0.06944075227 0.750897944 0.06361634284
0.06844284385 0.7517287135 0.06394412369
0.06744356453 0.7525272965 0.06425921619
0.06644724309 0.75332582 0.06457428634
0.0654534623 0.7541213632 0.06488817185
0.06446251273 0.7549160719 0.06520175189
0.06347327679 0.7557023168 0.06551196426
0.06248352677 0.7564653158 0.06581302732
0.06150200963 0.7572644353 0.06612833589
0.0605198741 0.7580398917 0.06643430144
0.05954019725 0.7588126659 0.0667391941
0.05856034905 0.7595658302 0.0670363605
0.05758456141 0.7603269815 0.06733670086
0.0566143319 0.7611054778 0.06764384359
0.05564012378 0.7618410587 0.06793409586
0.05467683822 0.762627244 0.06824428588
0.05372554809 0.7634686828 0.0685762912
0.05277670175 0.7643060684 0.06890667975
0.05183206499 0.7651500106 0.06923966855
0.05088728666 0.7659746408 0.0695650503
0.0499406755 0.7667707801 0.06987917423
0.04899905622 0.7675786614 0.07019794732
0.04806366563 0.7684050202 0.07052399963
0.04712870717 0.7692164779 0.07084416598
0.04619454592 0.7700156569 0.07115947455
0.04526279122 0.770811677 0.07147356123
0.04432536662 0.7715604901 0.07176902145
0.043395482 0.7723351121 0.07207465917
0.04246754199 0.7731047869 0.07237834483
0.04153796285 0.7738505602 0.07267260551
0.04059854895 0.7745300531 0.07294070721
0.03967184573 0.7752626538 0.07322975248
0.03874860704 0.7759990692 0.07352031767
0.03782168776 0.776702702 0.07379795611
0.03689750284 0.7774070501 0.07407584786
0.03597333282 0.7780982852 0.07434859127
0.0350535661 0.7787986994 0.0746249482
0.03413426876 0.7794886231 0.07489717007
0.03321585059 0.7801703215 0.07516614348
0.03230074793 0.7808558941 0.07543663681
0.03139829636 0.7815898657 0.07572623342
0.03031905182 0.781471014 0.07567935437
0.02905009128 0.7804609537 0.07528082281
0.02764997818 0.7788561583 0.07464762032
0.02623892762 0.7772282362 0.07400531322
0.02481230535 0.7755566239 0.07334574312
0.02339289524 0.7739460468 0.0727102682
0.02196658589 0.7723312974 0.0720731467
0.02050688304 0.7705938816 0.07138764113
0.08152215183 0.7401224971 0.05814840645
0.08050040901 0.7410873771 0.05853102729
0.07947817445 0.7420170903 0.05889971554
0.078466326 0.7430056334 0.05929172412
0.07746165991 0.7440235615 0.0596953854
0.07645144314 0.7449647188 0.06006862223
0.07543472201 0.7458248734 0.06040972099
0.07442030311 0.7466778755 0.06074798852
0.07342543453 0.7476598024 0.06113738194
0.07241549343 0.7484966516 0.06146922708
0.07140592486 0.7493125796 0.06179278716
0.07040080428 0.7501391768 0.06212059036
0.06939911842 0.7509685159 0.06244947016
0.06839984655 0.7517929673 0.06277641654
0.06740192324 0.7526050806 0.06309846044
0.06640589237 0.7534092069 0.06341733783
0.06541300565 0.7542143464 0.06373663247
0.06441919506 0.7549923658 0.06404516101
0.06343154609 0.7557929158 0.0643626079
0.06244063377 0.7565510869 0.06466328353
0.06145864725 0.7573502064 0.06498018652
0.06047780812 0.7581373453 0.06529231369
0.05949833244 0.7589142323 0.06560040265
0.05851832032 0.7596691251 0.06589975953
0.05754328519 0.7604378462 0.06620459259
0.05657278746 0.7612171769 0.06651365012
0.05559808016 0.761952281 0.06680516154
0.05463333428 0.7627319694 0.06711434573
0.05368236452 0.7635778189 0.06744977087
0.05273296684 0.7644143105 0.06778148562
0.05178651214 0.7652497888 0.06811280549
0.05084370822 0.7660884857 0.06844540685
0.04989702255 0.7668864727 0.06876186281
0.04895380139 0.7676873207 0.06907944381
0.04801864922 0.7685173154 0.06940856576
0.04708063602 0.769313693 0.06972438842
0.04614587128 0.7701117992 0.07004087418
0.04521470517 0.7709133625 0.0703587383
0.0442879349 0.7717226744 0.07067968696
0.04335335642 0.7724734545 0.07097741961
0.04242361337 0.7732352018 0.07127950341
0.04149100929 0.7739667892 0.07156960666
0.04056289047 0.774707675 0.07186340541
0.03963072598 0.7754131556 0.07214317471
0.03870154172 0.7761204839 0.07242368162
0.037776649 0.7768363953 0.07270756364
0.03685165197 0.7775382996 0.07298590988
0.03592300415 0.7782087922 0.07325181365
0.0349957943 0.7788740993 0.07351565361
0.03407920897 0.7795795798 0.07379540056
0.03316540271 0.7802857757 0.07407546043
0.03224495798 0.7809473276 0.07433778048
0.03132266551 0.7815881968 0.07459192723
0.03022955544 0.7814068198 0.07452000678
0.02892687358 0.7802423835 0.07405824959
0.02753546275 0.7786841989 0.07344034314
0.02613689937 0.7771196961 0.07281992584
0.02471844293 0.775490582 0.072173886
0.02327002026 0.7737526894 0.07148471475
0.02183129825 0.7720876932 0.07082442939
0.02038748004 0.770427525 0.07016607374
0.08148345351 0.7401652336 0.05694754049
0.08045948297 0.7411155701 0.05732628703
0.07944270223 0.7420973778 0.05771759152
0.07843046635 0.7430868745 0.05811196193
0.07742448151 0.7440978289 0.05851488188
0.07641329616 0.7450351119 0.05888845772
0.07539691031 0.7459021807 0.05923401564
0.07438997924 0.7468189597 0.05959939957
0.07338787615 0.7477468848 0.05996924639
0.07237537205 0.7485675812 0.06029632688
0.07136596739 0.7493886948 0.06062358245
0.07036265731 0.7502326965 0.06095996127
0.06936041266 0.7510612607 0.06129019707
0.06835854053 0.7518700957 0.06161255389
0.06736312807 0.7527038455 0.06194486469
0.06636607647 0.753503859 0.06226371229
0.06537161022 0.7543011904 0.0625814721
0.06438156217 0.7551085949 0.06290327758
0.06338966638 0.7558827996 0.06321183592
0.06239967793 0.7566503882 0.06351776421
0.06141578406 0.7574396729 0.06383235008
0.06043495238 0.7582298517 0.06414727122
0.05945565552 0.759010911 0.06445856392
0.05847671628 0.7597755194 0.06476330012
0.05750065297 0.7605404258 0.06506814808
0.05653049052 0.7613245249 0.06538065523
0.05555485189 0.7620564103 0.06567236781
0.05458973348 0.7628363967 0.06598322093
0.05363803357 0.7636803389 0.0663195774
0.0526881516 0.7645163536 0.06665277481
0.05174040049 0.7653465867 0.06698367
0.05079708248 0.7661847472 0.06731773168
0.04985325038 0.7670018077 0.0676433742
0.0489122048 0.7678174376 0.06796845049
0.0479721278 0.7686213255 0.06828884035
0.04703235626 0.7694100738 0.0686032027
0.04609817266 0.7702136636 0.06892348081
0.04516657442 0.771015048 0.06924287975
0.04423895478 0.7718219757 0.06956446171
0.04330860078 0.7725977898 0.06987368315
0.04238015413 0.7733684778 0.07018082589
0.04144861549 0.7741075158 0.07047538459
0.04051992297 0.7748470902 0.07077014446
0.03959371895 0.7755853534 0.07106437534
0.03866076469 0.7762746811 0.07133910805
0.03772968054 0.7769604325 0.0716124326
0.03680021316 0.7776415944 0.07188390195
0.03587239981 0.7783182859 0.07215359807
0.03495014459 0.7790100574 0.07242932916
0.03402804583 0.7796900272 0.07270032912
0.03310357779 0.7803461552 0.07296182215
0.03218843788 0.7810355425 0.07323657721
0.03125485033 0.7816243768 0.07347126305
0.03013005294 0.7812956572 0.07334025204
0.02882701345 0.7801344395 0.07287743688
0.02743166871 0.778562963 0.07225111872
0.02601111121 0.7769019604 0.07158911973
0.02459655143 0.7752966881 0.07094933093
0.02316848375 0.7736570835 0.07029587775
0.02171702124 0.7719395757 0.06961133331
0.02026707865 0.7702573538 0.06894087791
0.08144275844 0.7401906252 0.05573833734
0.08042177558 0.7411723137 0.05613157898
0.07939982414 0.7421143055 0.05650887266
0.07839033753 0.7431322932 0.05691663921
0.07738260925 0.7441332936 0.05731759593
0.07637461275 0.7451015711 0.05770544708
0.07536051422 0.7459913492 0.05806185305
0.07435014844 0.7468845248 0.05841961503
0.07334671915 0.7478061318 0.05878877267
0.07233265042 0.7486187816 0.05911429226
0.07132670283 0.7494704723 0.05945542082
0.07032378763 0.7503210306 0.05979612842
0.0693211332 0.7511501908 0.06012823433
0.0683176741 0.7519508004 0.06044894084
0.06732041389 0.7527747154 0.06077896431
0.0663241446 0.7535838485 0.06110306457
0.06532935798 0.7543823123 0.06142288446
0.06433720887 0.7551785111 0.06174179539
